ply
format ascii 1.0
element vertex 840
property float x
property float y
property float z
property float nx
property float ny
property float nz
end_header
-0.067693 0.083976 -0.274177 0.112877 0.532124 -0.839109
-0.638995 0.355401 0.222584 -0.154556 -0.956663 0.246795
-0.581295 0.246482 0.208284 -0.946505 0.003876 -0.322665
-0.439327 0.209164 -0.136231 -0.058587 0.588759 -0.806183
0.434757 -0.393881 -0.299862 0.159208 0.367544 -0.916278
0.149613 -0.163196 -0.246218 0.327458 -0.773003 -0.543358
-0.293334 -0.103988 0.159231 0.001611 -0.294139 0.955761
-0.027811 0.245169 -0.093453 0.371221 0.922439 -0.106305
-0.325145 0.431043 0.528694 -0.781905 -0.030472 -0.622653
-0.737258 0.398972 0.200673 -0.509137 0.545458 -0.665774
0.387527 -0.142846 -0.240730 -0.740932 -0.598124 -0.305399
0.046382 -0.009677 0.154848 -0.092293 0.123331 0.988064
-0.058122 -0.021037 -0.313280 0.028783 -0.129614 -0.991147
0.591989 0.457941 0.306222 -0.966719 0.064279 -0.247633
0.139988 -0.258790 -0.127614 0.159834 -0.846284 -0.508190
-0.623674 -0.536703 -0.100765 0.574202 -0.317977 -0.754442
0.523681 -0.532281 0.232129 -0.003151 -0.960845 -0.277067
-0.332767 -0.282095 -0.143530 -0.514380 -0.815973 0.263820
-0.444648 -0.485133 -0.557199 -0.059040 0.728448 -0.682553
-0.168989 0.207818 -0.199578 0.060531 0.605862 -0.793264
-0.275632 -0.003364 0.171765 -0.127580 -0.008732 0.991790
-0.326547 -0.166216 -0.386058 -0.115393 0.338183 -0.933979
-0.143007 -0.311360 -0.121385 0.005142 -0.985671 0.168599
-0.347099 0.262508 0.297969 0.883286 -0.313279 0.348800
0.168619 0.025318 0.139210 0.194513 0.345870 0.917899
-0.296286 0.324513 0.282264 -0.239382 -0.963964 -0.116064
-0.299266 -0.003104 -0.335270 -0.131768 0.496726 -0.857846
0.203592 -0.267695 -0.129607 -0.207358 0.073600 -0.975493
-0.317416 0.418070 0.520867 -0.825177 -0.201745 -0.527618
-0.430638 -0.064776 0.040187 -0.992192 0.068158 0.104446
0.588048 -0.476373 0.190352 0.217336 -0.579668 -0.785334
0.521810 -0.200145 0.153341 -0.396960 -0.833717 -0.383848
-0.360336 0.420463 0.235761 0.426629 0.888473 0.169123
0.712642 -0.282602 0.201213 0.431572 -0.048748 0.900760
-0.253820 0.041496 0.173759 0.046229 0.034816 0.998324
-0.437523 0.187102 0.402954 0.651628 -0.537748 0.534984
0.130796 0.100042 0.103883 0.008383 0.591174 0.806500
-0.575580 0.287184 0.178429 -0.953051 -0.168909 -0.251323
0.187130 -0.210716 0.049150 0.317066 -0.888215 0.332481
-0.388003 0.138063 -0.194792 -0.650201 0.436406 -0.621923
-0.019892 -0.242282 0.057674 -0.148205 -0.775386 0.613850
-0.316272 0.432725 0.390599 -0.500486 0.583714 0.639368
-0.497794 0.350961 0.017260 -0.633410 0.611526 -0.474160
-0.465489 0.125401 0.306073 0.722764 -0.665545 0.186177
0.457597 0.108908 0.144050 -0.005257 0.191222 0.981533
-0.152171 0.192664 0.134867 0.407601 0.418631 0.811547
0.137918 0.155263 -0.202760 0.111547 0.819678 -0.561859
-0.179200 -0.121377 -0.358392 0.265584 0.245097 -0.932412
-0.538991 0.085355 0.228822 -0.786135 0.617937 -0.012042
0.065247 0.218335 -0.081694 0.425773 0.799119 -0.424414
-0.323367 -0.110723 0.157209 0.001611 -0.294139 0.955761
-0.236007 0.378034 0.322820 0.344275 0.903678 -0.254637
0.581670 -0.226788 0.178809 -0.336383 -0.790732 0.511459
-0.058819 0.037595 -0.302397 0.112877 0.532124 -0.839109
0.781841 0.300417 0.090170 0.292177 -0.950030 0.109893
0.765656 0.318408 0.042718 0.599527 0.214936 -0.770954
-0.585970 0.168231 0.386440 -0.987900 -0.105517 -0.113664
0.031874 0.177098 0.050877 0.267927 0.511532 0.816425
0.519940 -0.136409 -0.239707 0.664002 0.104866 -0.740341
-0.250996 0.331140 -0.043333 0.241089 0.964082 -0.111458
0.479707 -0.139832 0.031893 0.039005 -0.997119 -0.065058
-0.349932 -0.224703 -0.402313 -0.595464 0.385031 -0.705106
0.670521 0.560177 0.355357 -0.295255 0.953160 0.065650
0.582357 -0.140247 -0.172033 0.692692 -0.660557 0.289556
-0.333592 0.427655 0.154215 0.129637 0.976002 -0.174969
-0.347672 0.246070 0.288653 0.924905 -0.184438 0.332466
-0.479271 -0.556902 -0.562327 0.052455 -0.817925 -0.572929
-0.594382 0.358651 0.140326 0.315002 0.419752 -0.851224
0.106062 -0.026648 -0.293426 0.316150 -0.103426 -0.943055
-0.343470 -0.081213 -0.342781 -0.598509 -0.489898 -0.633867
-0.174704 0.101515 0.167136 0.300593 0.143387 0.942912
-0.109774 -0.081765 -0.310331 0.089199 -0.278442 -0.956302
-0.321528 -0.229866 -0.307076 -0.440417 -0.469033 0.765533
-0.547635 0.143337 0.305111 -0.742842 -0.650042 -0.160097
-0.234693 0.243651 -0.173171 0.019281 0.665198 -0.746418
-0.510039 0.178299 -0.058673 -0.774990 -0.201070 -0.599134
-0.289721 0.250044 -0.168312 -0.311445 0.591281 -0.743901
-0.372804 0.076949 0.181752 -0.200754 -0.458931 0.865494
-0.303086 0.391831 0.282757 0.389702 0.909640 -0.143831
0.090705 0.075369 -0.274415 0.171932 0.520814 -0.836177
0.253820 -0.162787 0.095135 0.247709 -0.829520 0.500537
0.166149 -0.148841 -0.251326 0.442820 -0.681386 -0.582772
0.723419 0.323013 0.231745 -0.210463 -0.959505 -0.187231
-0.259144 0.048115 0.175303 0.359071 -0.300917 0.883469
0.658948 0.046293 0.130849 0.591234 0.145134 0.793334
0.388232 0.180774 0.104616 0.014247 0.895793 0.444243
-0.353484 0.438187 0.565618 -0.606597 -0.790182 0.087475
0.151647 0.056500 0.131057 0.194513 0.345870 0.917899
0.653859 0.132050 0.109431 0.632944 0.515096 0.577977
0.368943 0.048895 -0.236841 -0.431853 0.306287 -0.848346
-0.496207 -0.009611 -0.032156 -0.965191 -0.253242 -0.065388
0.566200 -0.123913 -0.069321 0.097515 -0.949660 0.297718
-0.152616 0.215437 0.123343 0.407601 0.418631 0.811547
-0.396402 0.434537 0.367350 0.249012 0.598934 0.761099
-0.051083 -0.279834 -0.158593 0.221478 -0.849070 -0.479613
-0.006701 0.156431 0.073951 0.117799 0.474539 0.872317
0.174430 -0.251192 -0.126196 -0.096776 -0.013273 -0.995218
-0.379547 0.270340 -0.114797 -0.297943 0.601882 -0.740924
-0.566893 0.323303 0.407140 -0.183493 0.122055 0.975414
-0.178824 -0.309039 -0.125102 -0.159827 -0.970957 0.178041
-0.236084 0.369178 0.380645 -0.205745 -0.869841 0.448382
-0.425221 -0.076228 0.067575 -0.841789 -0.040010 0.538322
-0.379014 -0.339594 -0.376019 -0.281342 0.089846 0.955392
-0.385380 -0.490317 -0.544239 0.225343 -0.610449 -0.759324
-0.228626 0.031168 -0.325558 0.151592 0.360768 -0.920253
-0.618838 -0.539576 -0.095874 0.574202 -0.317977 -0.754442
0.449029 0.042439 0.170623 0.020626 0.533042 0.845837
0.610785 -0.399406 0.202739 -0.498659 0.395531 -0.771294
-0.769693 0.363791 0.220732 -0.387054 -0.595226 -0.704198
-0.095514 0.204296 -0.177480 0.218374 0.696540 -0.683480
0.642608 0.121253 0.122545 0.246992 0.485603 0.838561
0.194183 -0.293745 -0.114741 -0.935721 0.344171 -0.077276
-0.527114 0.165307 0.098774 -0.950661 -0.298028 -0.086163
0.691458 -0.364427 0.211663 0.122334 0.303219 0.945036
0.658957 -0.122052 0.052094 0.499224 -0.676975 -0.540815
0.210656 -0.300632 -0.132683 0.379540 -0.117387 -0.917698
0.519271 -0.008558 -0.235952 0.457150 0.124575 -0.880622
-0.051553 -0.267367 -0.180879 0.221478 -0.849070 -0.479613
0.107259 0.180902 0.024691 0.266792 0.620593 0.737351
-0.622678 0.346947 0.202457 -0.372503 -0.247938 0.894298
-0.373205 -0.421106 -0.473050 0.996241 -0.086579 -0.002843
0.322707 -0.152473 0.067995 0.355088 -0.882843 0.307411
-0.384611 0.022365 -0.253087 -0.939009 0.070195 -0.336651
-0.277608 -0.338079 -0.222601 -0.011775 -0.993995 -0.108791
-0.431777 -0.177932 -0.115625 -0.843352 -0.385295 0.374572
-0.225927 -0.104854 0.158851 0.001611 -0.294139 0.955761
0.634141 0.422188 0.321258 -0.206559 -0.353876 0.912198
0.097065 -0.139293 -0.284270 0.143528 -0.356051 -0.923378
-0.580990 0.301774 0.128706 -0.773042 -0.581846 -0.252709
-0.423958 -0.464985 -0.477030 -0.496056 -0.369998 0.785513
-0.424929 0.211803 0.397340 0.525469 -0.050608 0.849306
-0.461866 0.460243 0.309689 -0.396814 0.913761 0.087062
0.578411 -0.232875 -0.033625 0.420233 -0.513723 0.747992
0.450638 -0.154766 -0.260683 -0.082443 0.236073 -0.968232
-0.596058 0.303640 0.393088 -0.556125 0.231402 0.798234
-0.691598 -0.527507 -0.104019 -0.354231 0.722233 -0.594054
0.398955 -0.169568 -0.238996 -0.726311 -0.449656 -0.519887
0.655165 0.057593 0.131601 0.591234 0.145134 0.793334
-0.427786 0.054287 -0.172398 -0.990732 0.015100 -0.134987
-0.547822 0.403618 0.357891 -0.395282 0.651332 0.647703
-0.387771 0.394858 0.000250 -0.390930 0.800481 -0.454318
-0.423177 -0.380612 -0.022814 0.317567 -0.261328 -0.911515
0.090582 0.008707 -0.299275 0.209522 0.069543 -0.975328
-0.270960 -0.112100 -0.369410 -0.036836 0.315661 -0.948157
-0.503521 0.394280 0.069708 -0.557816 0.632648 -0.537213
-0.265346 0.338700 -0.008667 0.239212 0.964850 -0.108821
0.603762 -0.153302 -0.046452 0.957620 0.124417 0.259777
-0.057009 -0.114588 -0.304018 -0.002251 -0.037243 -0.999304
-0.415352 -0.442502 -0.465799 -0.317518 -0.500433 0.805449
-0.350268 -0.139338 -0.317013 -0.980881 0.193949 0.016015
0.265621 0.109404 0.095401 -0.043439 0.529645 0.847106
0.384321 -0.087541 0.123759 -0.535982 -0.496970 0.682454
0.593508 -0.190892 -0.082547 0.415564 0.164443 -0.894575
0.230652 -0.102989 -0.242247 0.463724 -0.419756 -0.780234
-0.388272 -0.329580 -0.032866 0.227158 -0.259151 -0.938744
0.358583 -0.040909 -0.242907 -0.303889 0.219103 -0.927171
-0.385586 -0.053054 -0.252074 -0.959230 -0.153905 -0.237048
-0.068815 0.255088 0.018299 0.410991 0.884061 0.222539
-0.055327 0.089900 -0.268757 0.112877 0.532124 -0.839109
-0.021777 -0.162819 0.104281 -0.155196 -0.407507 0.899918
-0.317175 0.435581 0.360516 0.069857 0.997544 -0.005137
0.571217 -0.327937 -0.240770 0.591405 -0.035803 -0.805580
0.591779 0.435087 0.301112 -0.966719 0.064279 -0.247633
-0.316921 0.266471 0.244131 0.569817 0.051904 0.820131
-0.249113 0.365259 0.370385 -0.112819 -0.832483 0.542443
0.400504 0.185109 0.095042 0.048074 0.885750 0.461667
-0.311897 0.367319 -0.002559 0.291627 0.928356 -0.230454
-0.483689 0.207944 0.454014 0.725568 0.049636 0.686359
-0.385739 0.329770 0.387240 0.933345 -0.143664 0.328981
-0.608429 -0.541211 -0.083629 0.803282 -0.531953 -0.267888
0.424034 -0.144034 0.010565 0.036964 -0.993667 0.106107
0.645658 0.031055 -0.155497 0.616029 0.158314 -0.771651
-0.714200 0.320577 0.109443 -0.133426 -0.926926 -0.350721
-0.042491 -0.195352 -0.263522 0.200301 -0.785146 -0.586024
-0.296109 0.147656 0.202204 0.649771 -0.360954 0.668962
-0.467128 -0.400997 -0.050733 0.374040 -0.322349 -0.869589
0.728336 0.354517 0.259480 0.163732 0.969878 0.180355
0.606037 0.438247 0.318152 -0.356047 -0.379168 0.854086
-0.285949 0.417762 0.462272 -0.924095 0.366376 0.108708
-0.278175 0.361933 0.359482 -0.171325 -0.898871 0.403336
-0.549802 0.144717 0.309564 -0.742842 -0.650042 -0.160097
0.698213 -0.295238 0.132422 -0.090312 -0.314125 -0.945076
-0.316742 0.015073 -0.313517 -0.386043 0.475469 -0.790506
-0.773858 0.392694 0.351707 0.709514 -0.500857 0.495713
-0.422558 -0.261063 0.000948 -0.561060 0.642687 -0.521694
-0.409915 0.091235 0.202611 -0.360408 -0.459145 0.811968
-0.340866 -0.151372 -0.363025 -0.754578 0.510126 -0.412774
-0.371558 -0.114638 -0.268106 -0.858846 -0.378243 -0.345420
-0.229642 -0.077959 0.167590 -0.030487 -0.345371 0.937971
-0.031569 0.124545 0.096338 0.371315 0.301678 0.878132
-0.462544 0.356058 -0.005963 -0.416102 0.587514 -0.694036
0.570804 -0.333621 -0.201804 0.679648 -0.692657 0.241465
-0.481676 0.431213 0.096670 -0.300081 0.910245 -0.285315
-0.435362 0.461176 0.330847 0.156873 0.970062 0.185395
-0.434132 0.265447 0.408759 0.599586 -0.137471 0.788415
0.319710 0.162260 0.085425 -0.700355 0.424671 0.573723
0.715695 0.320792 0.249395 -0.198479 -0.954637 -0.221977
-0.395803 -0.038619 0.126835 -0.743851 -0.151314 0.650992
-0.496374 0.167070 -0.072894 -0.851015 -0.174013 -0.495473
0.232817 -0.237694 -0.070006 0.355343 -0.762737 0.540337
0.122628 -0.239402 0.011514 0.163773 -0.920261 0.355385
0.654971 0.230574 -0.020942 0.748925 -0.577621 -0.324754
-0.412454 -0.205475 -0.000527 -0.952958 -0.152202 -0.262119
0.444523 -0.428636 -0.263200 0.346217 -0.884131 0.313760
-0.575238 0.294651 0.410199 -0.556125 0.231402 0.798234
0.516393 -0.301416 -0.192194 -0.092643 -0.152130 0.984009
0.217666 -0.189368 0.072883 0.285532 -0.734648 0.615438
0.215444 0.112816 -0.224492 0.163495 0.689812 -0.705286
-0.344296 0.309235 -0.087140 -0.355167 0.206404 -0.911731
-0.448973 -0.014375 0.043349 -0.794356 -0.558491 0.238928
-0.008226 -0.124824 -0.301340 0.083147 -0.104258 -0.991068
0.629164 0.432725 0.324531 -0.132408 -0.373254 0.918232
-0.308419 0.401753 0.540041 0.013271 -0.958258 0.285596
0.315137 -0.059095 -0.225243 0.138883 0.138775 -0.980537
-0.052712 0.163199 -0.215379 0.039020 0.848664 -0.527491
-0.281695 0.191820 0.210690 0.716118 -0.390415 0.578577
0.305430 -0.102277 0.100581 0.198664 -0.315123 0.928025
-0.574774 -0.423402 -0.043554 -0.325619 0.601028 -0.729889
-0.398307 0.171964 0.328142 0.818421 -0.400585 0.411969
-0.631328 0.322695 0.321593 -0.881525 0.470698 -0.036828
-0.261184 -0.233780 -0.256571 -0.060622 -0.701103 -0.710478
0.260969 -0.085482 0.119084 0.182387 -0.137567 0.973555
0.510728 -0.048047 0.184507 0.070841 -0.032695 0.996952
-0.559529 0.155503 0.318960 -0.859177 -0.509221 -0.050080
-0.421315 -0.198335 -0.179188 -0.334443 0.468115 -0.817934
-0.376880 -0.067332 -0.278036 -0.959230 -0.153905 -0.237048
-0.770520 0.400543 0.308923 0.791457 0.580535 0.191246
-0.329200 -0.367836 -0.409567 0.516007 -0.707990 0.482169
-0.671542 0.422071 0.225898 -0.068799 0.994316 -0.081260
-0.615979 0.383793 0.323213 -0.992531 0.040206 0.115172
-0.285352 -0.109044 -0.366871 -0.082061 0.383507 -0.919885
-0.698358 -0.558616 -0.036907 -0.428600 -0.007715 0.903462
-0.480577 0.432254 0.098837 -0.300081 0.910245 -0.285315
0.588741 -0.440377 0.197799 -0.506919 0.187439 -0.841368
-0.087872 0.164836 -0.215674 0.253976 0.663344 -0.703897
-0.118149 0.035855 -0.301623 -0.052828 0.145436 -0.987956
0.658026 -0.378545 0.224662 0.008222 0.278993 0.960258
0.548993 -0.152044 0.051546 -0.256714 -0.836648 -0.483858
0.683912 0.431312 0.325334 0.014243 -0.388673 0.921266
-0.382695 0.236749 0.358514 0.724213 -0.222128 0.652820
-0.319686 0.368548 -0.007466 0.291627 0.928356 -0.230454
-0.150438 -0.180111 0.089071 0.777895 -0.550098 0.303763
-0.451340 0.363745 -0.004863 -0.295372 0.668188 -0.682847
-0.238340 -0.214812 -0.297525 0.066748 -0.975665 -0.208859
-0.051491 0.251007 0.002516 0.410991 0.884061 0.222539
0.575279 -0.295373 -0.239477 0.785649 0.415231 -0.458627
0.529164 0.185286 0.079322 -0.203845 0.707685 0.676483
-0.502268 0.456866 0.291970 -0.204296 0.974531 -0.092485
-0.157142 0.251356 -0.143976 0.187137 0.702143 -0.687005
-0.334955 0.431668 0.571526 -0.150977 -0.690202 0.707691
0.512004 -0.545838 0.282684 -0.968084 0.007107 0.250527
-0.664867 0.356460 0.217775 -0.230659 -0.955088 0.186018
-0.448442 0.448238 0.354324 -0.164036 0.648145 0.743640
0.260548 -0.142616 -0.186455 0.452565 -0.708400 -0.541622
-0.399932 0.174224 0.333567 0.818421 -0.400585 0.411969
-0.455417 -0.469905 -0.517124 -0.772474 0.625783 0.108074
-0.287248 0.404941 0.541471 0.627395 0.037726 0.777787
-0.351078 0.279751 0.317568 0.969580 0.023706 0.243625
0.301268 0.219248 -0.064259 -0.151203 0.977199 -0.149060
0.552695 -0.190129 -0.186975 0.098509 -0.215705 0.971477
-0.413938 -0.351777 -0.445001 -0.908200 0.230430 -0.349392
-0.384549 -0.290900 -0.423498 -0.760211 0.610951 -0.220950
0.089527 -0.106561 0.141509 0.018600 -0.435351 0.900069
-0.594231 0.251749 0.251428 -0.778394 -0.572897 0.256696
-0.282426 0.381251 0.412726 0.151015 -0.888307 0.433712
0.499781 -0.519010 0.252289 -0.887091 0.205121 -0.413515
-0.312179 0.349601 0.338156 0.263015 -0.962067 -0.072463
-0.267251 0.363886 0.368475 -0.171325 -0.898871 0.403336
-0.595769 0.275814 0.386974 -0.922313 -0.232192 0.308910
-0.562744 -0.442383 -0.011917 -0.085611 -0.650843 0.754370
0.548502 -0.532954 0.296041 -0.160118 0.271879 0.948917
-0.000342 -0.003144 0.147729 -0.028760 0.182862 0.982718
0.495908 0.188003 0.073595 0.069436 0.872982 0.482784
0.312029 -0.476561 -0.300772 -0.046412 0.278966 0.959179
0.638337 0.286245 0.025990 -0.510549 0.435353 0.741490
-0.517145 0.169177 0.498987 0.880535 -0.152597 0.448746
-0.051713 0.081868 0.123679 0.147430 0.386252 0.910535
-0.221203 -0.008380 -0.341879 0.008328 0.537851 -0.842999
0.176399 0.152870 -0.194009 0.172389 0.703262 -0.689714
-0.628678 0.345630 0.337326 -0.931538 -0.086665 -0.353166
0.161843 -0.202208 -0.189515 0.392207 -0.705472 -0.590325
0.360231 0.024711 0.132108 -0.285860 -0.177639 0.941663
-0.773598 0.424867 0.377694 0.986698 0.142902 -0.077495
-0.008460 0.226165 0.015545 0.226323 0.906086 0.357471
-0.501261 0.112073 0.451281 0.165772 0.248612 0.954312
-0.382186 -0.324784 -0.378346 -0.281342 0.089846 0.955392
-0.386463 -0.085503 -0.238391 -0.841066 -0.112722 -0.529057
0.023572 -0.000107 -0.309974 -0.087015 -0.052990 -0.994797
-0.329797 0.201788 0.253121 0.024638 -0.117864 0.992724
-0.086485 0.094494 0.140080 0.300593 0.143387 0.942912
0.040040 0.049928 0.140093 -0.007537 0.396141 0.918159
-0.432566 -0.101704 0.045976 -0.992192 0.068158 0.104446
-0.315294 -0.220995 -0.298055 -0.440417 -0.469033 0.765533
-0.566004 0.145506 0.488398 -0.443476 -0.523890 0.727233
-0.296652 0.363959 0.355731 -0.198398 -0.869389 0.452550
-0.324585 0.254165 0.263332 0.722626 -0.144338 0.676001
-0.405888 -0.101803 -0.205573 -0.789711 -0.158584 -0.592627
0.752778 0.292242 0.081138 -0.099362 -0.949019 0.299150
0.052108 -0.197148 -0.247829 0.145387 -0.751388 -0.643645
-0.527932 0.352889 0.408935 -0.256290 0.469378 0.844985
0.377530 -0.090480 0.116286 -0.535982 -0.496970 0.682454
0.378836 -0.040959 0.135360 -0.419057 -0.266871 0.867854
0.637068 -0.088526 -0.005796 0.596450 -0.552480 -0.582248
-0.466829 0.446043 0.149858 -0.071847 0.985482 -0.153828
-0.229643 -0.292861 -0.070779 -0.124313 -0.982532 0.138481
-0.580293 0.237272 0.206273 -0.972176 -0.100535 -0.211583
0.334006 -0.483674 -0.287155 -0.503552 0.411852 0.759482
-0.087768 -0.167991 -0.292255 0.081487 -0.604100 -0.792732
-0.302601 0.267834 0.236615 0.198328 -0.154275 0.967918
-0.149959 -0.219595 -0.256574 0.086665 -0.648433 -0.756323
0.415439 0.068543 0.149421 -0.533880 0.260148 0.804546
-0.271911 0.369575 0.068692 0.553853 0.818064 -0.154977
-0.742829 0.360010 0.202648 -0.545952 -0.655169 -0.522197
-0.480292 0.160483 0.454231 0.744424 0.159215 0.648447
-0.322463 0.396869 0.239265 0.570013 0.797032 0.199562
-0.512201 -0.431777 -0.055025 0.158687 -0.217357 -0.963107
-0.379102 0.199604 0.315577 0.911077 -0.313321 0.267896
0.135301 0.049472 0.137169 0.194513 0.345870 0.917899
-0.191376 -0.174029 0.127991 0.079418 -0.461996 0.883319
-0.421033 -0.170491 0.029032 -0.935178 -0.276211 0.221699
0.359913 -0.482319 -0.279554 -0.024849 -0.052742 0.998299
-0.489564 0.456710 0.262262 -0.204296 0.974531 -0.092485
0.619279 -0.435896 0.183680 -0.261699 0.275860 -0.924886
0.286613 -0.214080 -0.067415 0.294667 -0.760574 0.578532
-0.502967 0.452551 0.327921 -0.049301 0.977893 0.203211
-0.329956 0.212008 -0.177457 -0.427683 0.470896 -0.771585
-0.381030 -0.014945 -0.271476 -0.939048 0.079821 -0.334391
0.646315 0.417540 0.281042 0.248965 0.040132 -0.967681
0.450553 0.083749 -0.233249 0.167834 0.595012 -0.785998
-0.412304 0.412449 0.385486 0.219170 0.478654 0.850209
0.305578 0.185362 -0.152644 -0.209358 0.670152 -0.712085
-0.580874 0.425206 0.319101 -0.331279 0.629911 0.702472
-0.406240 -0.019553 -0.226470 -0.776947 0.303707 -0.551467
-0.355848 -0.182574 -0.368855 -0.763100 0.437531 -0.475651
-0.228659 -0.077368 0.167840 -0.030487 -0.345371 0.937971
0.061977 -0.085372 -0.300377 0.073565 -0.092521 -0.992989
-0.303726 0.393456 0.415594 -0.583786 -0.558486 0.589311
-0.315117 0.279434 -0.123161 0.001983 0.841451 -0.540330
-0.265912 -0.255662 -0.232050 0.065689 -0.773354 -0.630562
0.002003 0.099761 -0.256115 -0.524437 0.756039 -0.391627
-0.137230 -0.297852 -0.054124 0.116964 -0.991423 0.058316
0.330428 -0.513129 -0.364792 0.395598 -0.859544 -0.323552
0.751548 0.321185 0.247953 0.407622 -0.719402 0.562410
-0.358223 0.403545 0.023522 0.459414 0.783784 -0.417877
-0.448471 0.135203 0.274559 0.729417 -0.664846 0.161032
-0.311341 0.409829 0.518400 -0.691005 -0.650428 -0.315366
0.465019 0.218633 -0.089617 0.003261 0.944718 -0.327869
-0.228135 0.372261 0.386422 -0.236751 -0.465022 0.853055
-0.569420 -0.519276 -0.038654 0.922915 -0.258981 0.284880
0.632370 0.125264 0.123238 0.246992 0.485603 0.838561
0.792449 0.338108 0.120621 0.134969 0.980846 -0.140441
0.583257 -0.140379 -0.191695 0.822448 -0.370925 -0.431271
0.517428 -0.544487 0.270583 0.105196 -0.964336 -0.242878
0.447327 -0.090527 0.160852 -0.537191 -0.215254 0.815531
-0.179785 -0.254552 -0.221856 0.089517 -0.802000 -0.590579
0.485751 -0.173282 -0.263103 -0.044745 -0.430081 -0.901681
0.570457 0.253165 0.017352 -0.266147 0.862471 0.430477
0.151602 -0.203998 0.084710 0.249060 -0.747927 0.615284
-0.447778 -0.457207 -0.505822 -0.940101 0.317919 0.123035
0.391737 0.177031 -0.190579 0.187660 0.565370 -0.803206
0.472439 -0.212422 -0.251834 -0.235206 -0.186224 -0.953939
0.596496 -0.438503 0.253728 0.293805 0.536709 0.790963
-0.101575 0.272580 0.009312 0.410991 0.884061 0.222539
-0.273433 0.128182 -0.263608 -0.141848 0.524713 -0.839378
0.510770 -0.342304 -0.268733 0.322879 0.162979 -0.932302
-0.371872 -0.295782 -0.371485 -0.772847 -0.186238 0.606649
0.269365 -0.058294 0.121352 0.182387 -0.137567 0.973555
0.616193 0.399036 0.309262 -0.151996 -0.340372 0.927925
0.525244 -0.498107 0.220466 -0.560643 0.142044 -0.815784
-0.342332 0.269238 0.280569 0.975800 -0.057814 0.210882
-0.397717 -0.142456 0.092602 -0.896963 0.007491 0.442043
-0.586663 0.145036 0.421065 -0.940064 -0.179119 -0.290166
0.580380 -0.208687 0.195913 -0.160650 -0.344312 0.925009
-0.587344 0.217629 0.254749 -0.978400 -0.030609 0.204441
0.263591 0.146095 0.075435 -0.153563 0.159829 0.975127
-0.581788 -0.458534 -0.059557 0.249026 0.422946 -0.871265
0.209382 -0.246608 -0.129818 -0.197088 0.032582 -0.979844
-0.350006 0.164138 -0.202175 -0.384987 0.733966 -0.559534
-0.359025 -0.351197 -0.456965 0.286976 0.060587 -0.956020
-0.274872 -0.135147 -0.376931 -0.036836 0.315661 -0.948157
-0.268275 -0.294534 0.062715 0.255701 -0.737212 0.625408
-0.306635 0.382044 0.400763 -0.198099 -0.940991 0.274397
0.463793 -0.140514 0.029678 0.036964 -0.993667 0.106107
-0.678454 0.354533 0.181729 -0.392139 -0.732635 0.556303
-0.451812 -0.122006 -0.109831 -0.801828 -0.273201 0.531444
0.034942 -0.251079 0.041289 -0.000517 -0.888940 0.458023
-0.374711 -0.235295 -0.214787 -0.433822 -0.064383 -0.898695
0.648488 0.043988 0.139066 0.591234 0.145134 0.793334
-0.657971 0.369169 0.255879 -0.228717 -0.447205 0.864694
-0.557959 -0.403913 -0.024393 -0.848553 0.506717 0.152304
0.702722 -0.016042 0.066335 0.968131 -0.223297 -0.113406
0.197475 0.100865 -0.240347 0.163495 0.689812 -0.705286
-0.304717 0.404147 0.314616 0.567880 0.675571 -0.470230
-0.438708 -0.435699 -0.492093 -0.940101 0.317919 0.123035
-0.655154 0.423497 0.229473 -0.068799 0.994316 -0.081260
0.029742 -0.122850 -0.298363 0.083147 -0.104258 -0.991068
0.186488 -0.243925 -0.040154 0.346383 -0.885073 0.310908
0.550219 -0.167525 -0.047675 -0.852680 0.156410 -0.498470
-0.286443 0.346310 0.225886 0.804659 0.503958 0.313928
0.504602 -0.208805 -0.245305 0.301123 -0.400125 -0.865578
-0.485062 -0.530905 -0.598653 -0.466349 0.686300 -0.558132
-0.014283 0.240108 -0.041562 0.257558 0.957089 0.132831
0.646979 0.530979 0.364201 0.106854 -0.039922 0.993473
-0.417661 -0.436005 -0.462673 -0.317518 -0.500433 0.805449
-0.541390 0.116416 0.455517 0.070497 -0.971231 0.227464
0.734712 -0.266673 0.182266 0.410493 0.141914 0.900753
-0.294051 -0.247925 -0.307535 0.364713 -0.699848 0.614164
-0.477772 0.024841 -0.055512 -0.790064 0.365078 -0.492459
0.057986 -0.244807 0.046256 0.343175 -0.812876 0.470598
-0.380884 0.381974 0.369606 0.003876 -0.496045 0.868288
0.364194 0.074244 -0.228932 -0.199741 0.194287 -0.960394
-0.274777 0.224471 0.215304 0.633304 -0.061787 0.771432
-0.284891 0.143250 0.188516 0.664475 -0.345352 0.662726
-0.300619 -0.218907 -0.264815 -0.128142 -0.634188 -0.762487
-0.600662 -0.513937 -0.088979 0.133539 0.399263 -0.907059
0.620701 -0.138313 0.184440 0.194205 0.150570 0.969336
-0.320847 0.297288 0.267127 0.727715 -0.438282 0.527578
0.243795 -0.153115 -0.186721 0.452565 -0.708400 -0.541622
-0.471449 -0.018048 -0.029927 -0.269341 -0.911678 0.310320
0.056352 0.193505 0.032098 0.275541 0.523518 0.806229
0.318108 0.221089 -0.016673 -0.356613 0.885808 0.296937
0.579427 -0.440611 0.203358 -0.506919 0.187439 -0.841368
0.456847 -0.401579 -0.249076 -0.292052 -0.154422 0.943854
0.661718 -0.246527 0.127598 -0.135123 -0.560758 -0.816879
-0.250905 0.384808 0.490821 0.011308 -0.942387 0.334333
-0.291710 -0.273424 -0.341819 0.398604 -0.784203 0.475542
0.498857 -0.181606 0.149494 -0.694688 -0.412834 0.589047
-0.485117 -0.386647 0.025142 -0.393662 0.122982 0.910992
-0.155098 0.174431 -0.224993 0.034651 0.647594 -0.761197
-0.222145 -0.246883 -0.238257 0.065689 -0.773354 -0.630562
0.126147 -0.238332 0.012664 0.163773 -0.920261 0.355385
-0.655107 0.360271 0.241271 -0.041040 -0.981012 0.189555
0.398061 -0.083344 0.131610 -0.419057 -0.266871 0.867854
0.575289 -0.011914 0.181383 0.016531 0.057168 0.998228
-0.283152 0.417116 0.359291 0.567880 0.675571 -0.470230
-0.285533 -0.079351 0.167753 0.377852 -0.826253 0.417773
0.186684 -0.028827 -0.266159 0.316150 -0.103426 -0.943055
0.452364 -0.069857 -0.264243 0.019917 0.133174 -0.990893
-0.483952 0.065377 -0.045363 -0.916123 -0.390841 -0.089225
-0.307168 -0.292133 -0.114554 -0.377697 -0.876955 -0.297143
0.320921 -0.116155 -0.200961 -0.109133 -0.904497 -0.412281
0.541352 -0.536963 0.275920 0.137548 -0.980565 0.139900
0.650591 0.369877 0.268689 -0.070050 0.149314 -0.986305
-0.270460 0.396010 0.335359 0.352475 0.875326 -0.331007
-0.174804 0.039581 -0.313394 0.151592 0.360768 -0.920253
0.011912 -0.144374 0.117462 -0.139288 -0.392707 0.909054
-0.429595 -0.392770 0.018586 0.407199 -0.857837 0.313535
0.568412 -0.458348 0.205147 -0.323483 0.263173 -0.908900
-0.217721 0.109132 0.170775 0.313756 -0.000084 0.949504
-0.432500 -0.066892 0.023849 -0.992361 0.067897 0.103003
-0.544037 0.213535 0.145125 -0.939097 -0.331753 0.089646
-0.320968 0.120125 0.200848 0.218723 -0.563661 0.796522
-0.445510 0.424915 0.375652 -0.105127 0.695367 0.710925
0.322660 0.166406 0.085957 -0.700355 0.424671 0.573723
-0.255727 0.329376 0.174562 0.666244 0.494164 0.558499
0.236186 -0.158686 0.097959 0.119549 -0.155315 0.980604
-0.404140 0.020417 -0.223812 -0.728148 -0.008475 -0.685368
-0.476974 0.109800 0.294890 0.722764 -0.665545 0.186177
-0.315419 0.395566 0.224603 0.567480 0.797570 0.204570
-0.290828 0.338173 0.262937 0.924871 -0.328539 -0.191511
0.539213 0.196767 0.070340 -0.203845 0.707685 0.676483
-0.666328 -0.501037 -0.086906 -0.354231 0.722233 -0.594054
-0.551772 -0.421009 -0.056022 -0.425940 0.630083 -0.649284
0.614697 -0.203610 0.097584 0.079862 -0.530942 -0.843637
-0.370459 0.227903 0.319297 0.910870 -0.313524 0.268362
-0.397701 -0.009614 -0.233027 -0.776947 0.303707 -0.551467
-0.046542 -0.241090 0.052746 -0.148205 -0.775386 0.613850
-0.080493 -0.084146 0.129777 -0.107390 -0.389115 0.914908
0.086233 -0.271601 -0.099775 0.214037 -0.975564 0.049635
-0.764322 0.399339 0.244234 -0.515891 0.855828 0.037629
-0.561631 0.449212 0.296092 -0.495750 0.594384 0.633198
0.427538 -0.142452 0.024151 0.036964 -0.993667 0.106107
0.164252 0.191297 -0.138462 -0.014340 0.933475 -0.358355
0.548484 -0.457324 0.259079 -0.335711 0.802085 0.493921
0.695833 -0.040400 0.055485 0.968131 -0.223297 -0.113406
-0.358545 0.183751 0.265909 0.408011 -0.532744 0.741425
0.178289 0.019457 0.139369 0.194513 0.345870 0.917899
0.762793 0.347576 0.225006 0.153075 0.988214 -0.000351
0.484823 0.230760 -0.054493 -0.026719 0.944198 -0.328293
0.594260 -0.209810 -0.028546 0.647324 -0.213987 0.731561
-0.443893 0.025463 -0.127957 -0.937726 0.160760 -0.307938
0.311380 -0.467632 -0.332117 -0.789069 0.600856 0.127838
-0.455139 0.095684 0.201216 0.029873 -0.821660 0.569195
-0.709273 0.370913 0.131734 -0.117201 0.772066 -0.624643
-0.115841 0.191283 0.117305 0.453016 0.414042 0.789523
-0.411247 -0.202146 -0.006848 -0.952958 -0.152202 -0.262119
0.430932 0.176289 -0.182940 0.135718 0.615462 -0.776394
-0.296511 -0.301219 -0.369251 0.492487 -0.544080 0.679289
0.025125 0.063390 -0.289733 0.052916 0.373222 -0.926232
-0.315082 0.432995 0.391285 -0.500486 0.583714 0.639368
-0.169660 -0.021296 0.177149 0.229690 -0.092177 0.968889
-0.737805 0.398878 0.258261 0.491297 0.318858 0.810529
-0.418988 0.454957 0.341367 0.261751 0.937344 0.229939
0.622202 0.359475 0.285848 -0.547919 -0.797035 0.254007
-0.404382 -0.376412 0.028861 0.532159 -0.831145 0.161263
0.659998 0.057064 0.128096 0.591234 0.145134 0.793334
-0.014703 -0.071204 0.146923 -0.285721 -0.056310 0.956657
-0.089634 0.159665 -0.223795 0.039020 0.848664 -0.527491
-0.394077 -0.225204 -0.121422 -0.754151 -0.642931 -0.133775
0.198735 -0.301370 -0.114200 -0.063646 -0.617490 0.784000
-0.387367 -0.060882 -0.242200 -0.841066 -0.112722 -0.529057
-0.602518 0.297435 0.233796 -0.896099 -0.015170 -0.443594
0.632128 0.177719 0.078068 0.080067 0.691132 0.718279
-0.681941 -0.522396 -0.103563 -0.354231 0.722233 -0.594054
-0.537651 0.133179 0.299790 -0.759927 -0.616072 -0.207282
-0.471504 0.453804 0.333353 -0.396814 0.913761 0.087062
0.347875 -0.054364 0.117965 -0.384599 -0.253989 0.887453
-0.343174 0.255786 0.280340 0.990439 -0.076408 0.114862
0.276580 0.033038 0.128168 0.134160 0.145368 0.980239
-0.330683 0.239304 0.261761 0.082825 -0.384787 0.919282
0.423247 0.141975 -0.208868 0.122035 0.357865 -0.925765
-0.304416 -0.220637 -0.291523 -0.550105 -0.425268 0.718702
0.667213 0.245601 0.015952 0.824213 -0.552590 0.123761
-0.712356 -0.525710 -0.093773 -0.178981 0.822832 -0.539363
-0.673332 -0.501249 -0.081587 -0.406218 0.857860 -0.314743
0.459766 -0.151684 -0.264533 -0.226984 -0.454258 -0.861469
0.612785 0.382119 0.275356 -0.199285 0.199877 -0.959341
-0.090198 -0.170244 -0.290789 0.081487 -0.604100 -0.792732
-0.398751 0.279170 0.396640 0.249194 -0.895475 0.368819
-0.144276 -0.261238 0.013464 0.118363 -0.894721 0.430656
-0.199208 -0.325731 -0.194601 0.822891 0.141963 -0.550179
0.176993 0.075714 -0.258648 0.347711 0.263916 -0.899692
-0.444740 0.443005 0.109904 -0.065848 0.992503 -0.102961
-0.375879 0.122765 -0.214216 -0.730594 0.286689 -0.619711
-0.361827 -0.027519 -0.317118 -0.386043 0.475469 -0.790506
0.358966 0.203348 0.052458 -0.197049 0.926297 0.321163
-0.325822 -0.335813 0.055795 0.355996 -0.882567 0.307152
0.334525 -0.186408 -0.072577 0.606569 -0.575318 -0.548711
-0.036881 -0.225846 -0.223512 -0.065628 -0.811970 -0.579998
-0.064647 -0.043654 -0.310512 0.028783 -0.129614 -0.991147
-0.370669 -0.242506 -0.392575 -0.884898 0.285411 -0.368098
0.378712 0.199078 -0.157799 -0.151513 0.657146 -0.738378
-0.514351 0.132753 0.087492 -0.869066 -0.475227 0.137416
0.162601 0.127889 -0.221999 0.163495 0.689812 -0.705286
-0.239565 0.145645 0.169449 0.066998 0.208286 0.975771
-0.403038 -0.097568 0.100194 -0.739334 -0.281561 0.611644
-0.428697 0.025009 -0.172018 -0.922051 0.163548 -0.350820
-0.339113 -0.330634 0.060763 0.057771 -0.608353 0.791561
0.367228 0.177780 -0.195778 0.187660 0.565370 -0.803206
-0.125925 0.078285 -0.286612 0.141238 0.496911 -0.856231
-0.224527 0.195850 0.156617 0.168963 0.189979 0.967140
0.187093 0.172276 -0.171548 0.172389 0.703262 -0.689714
0.273006 -0.215234 -0.060723 0.409573 -0.869217 0.276970
-0.584077 0.153985 0.480646 -0.286181 -0.847818 -0.446435
-0.541382 -0.388113 -0.004502 -0.756140 0.560713 0.337423
0.517473 -0.546364 0.282507 0.359282 -0.932781 -0.028908
-0.117631 0.057065 0.163525 0.285677 0.077301 0.955203
-0.131222 0.257529 -0.130607 0.187137 0.702143 -0.687005
0.489772 0.168587 0.109586 0.069436 0.872982 0.482784
0.278490 0.189870 -0.142011 -0.171223 0.618870 -0.766605
-0.560797 0.182967 0.227323 -0.818151 -0.527560 -0.228711
0.150644 0.095073 0.105947 0.097353 0.562109 0.821313
0.276249 0.029824 -0.230611 0.184749 0.167672 -0.968377
0.619176 0.027864 0.163753 0.360946 0.044109 0.931543
-0.805015 0.372364 0.299079 -0.841394 -0.539248 -0.035593
0.628366 0.245732 -0.030824 0.007296 0.490401 -0.871466
-0.140872 -0.290454 -0.037715 -0.175151 -0.785944 0.592971
-0.006775 -0.270705 -0.007496 0.024852 -0.935308 0.352960
0.462353 -0.078607 -0.265218 0.019917 0.133174 -0.990893
0.481319 -0.362239 -0.278079 0.104840 0.346682 -0.932105
0.523402 0.080790 -0.219934 0.167834 0.595012 -0.785998
-0.464508 0.414409 0.382955 -0.108773 0.688202 0.717319
0.581210 -0.215180 0.118996 -0.394351 -0.793743 -0.463097
0.138970 0.210137 -0.025416 -0.009822 0.867692 0.497006
-0.101607 0.244176 0.070158 0.467273 0.621861 0.628447
0.658765 -0.324535 0.207700 -0.799555 0.561343 0.213556
-0.299150 0.353094 0.334584 0.233265 -0.972256 -0.017503
0.534112 -0.029280 0.183461 0.070841 -0.032695 0.996952
-0.403588 -0.037275 -0.223888 -0.825551 -0.236872 -0.512208
-0.417014 -0.186343 -0.022799 -0.865573 -0.500780 0.001618
0.683133 0.564295 0.352282 -0.295255 0.953160 0.065650
0.681237 0.067592 -0.019493 0.935778 -0.026087 -0.351624
-0.290743 0.379897 0.282282 0.394594 0.536150 -0.746216
-0.345029 0.243958 -0.150109 -0.297943 0.601882 -0.740924
-0.412599 0.343225 0.417098 0.581537 0.306403 0.753612
-0.583086 0.279489 0.199154 -0.859427 -0.145751 -0.490043
0.251991 0.216763 -0.042073 0.121758 0.974220 0.189921
0.383181 -0.432756 -0.279774 -0.412361 0.141343 0.899989
-0.511693 0.091405 0.328756 -0.412823 -0.729184 0.545772
-0.546626 0.150269 0.275175 -0.711154 -0.650633 -0.266339
0.389602 0.215960 0.031886 -0.023014 0.924424 0.380672
-0.563192 0.417650 0.197707 -0.062595 0.451179 -0.890236
-0.499327 -0.001546 -0.017347 -0.965191 -0.253242 -0.065388
0.774500 0.300202 0.113280 0.099473 -0.994704 -0.025875
-0.691644 0.337950 0.102333 0.145162 0.220159 -0.964603
-0.579861 0.126458 0.466065 -0.736531 -0.537789 0.410250
0.439260 -0.118062 0.142025 -0.533883 -0.088128 0.840953
0.567267 0.238176 0.035475 -0.203845 0.707685 0.676483
0.204542 -0.137017 -0.236046 0.422238 -0.683381 -0.595572
-0.561344 0.158331 0.321343 -0.859177 -0.509221 -0.050080
-0.573618 0.124563 0.465385 -0.039710 -0.857811 0.512429
0.112401 0.146493 -0.220620 0.111547 0.819678 -0.561859
-0.209578 0.031121 -0.322439 0.151592 0.360768 -0.920253
0.230743 -0.059976 -0.247972 0.316150 -0.103426 -0.943055
0.310388 0.197702 0.037362 -0.199661 0.941735 0.270687
0.402349 -0.062644 -0.262796 -0.117435 0.111223 -0.986833
-0.420109 0.374124 0.412843 0.430656 0.322171 0.843055
-0.627847 -0.546584 -0.033622 0.338064 -0.273513 0.900502
0.380412 -0.140163 0.075376 -0.048275 -0.995583 0.080519
0.549437 -0.451301 0.249947 -0.335711 0.802085 0.493921
-0.372395 -0.007871 -0.291496 -0.922285 0.042229 -0.384197
-0.289514 0.425291 0.425298 -0.490543 0.856888 0.158466
-0.000042 -0.141858 -0.298862 0.083147 -0.104258 -0.991068
-0.329496 0.032266 0.177671 -0.424450 -0.132644 0.895683
-0.171401 -0.167226 -0.305209 0.822592 -0.565786 0.056817
0.658863 0.021008 -0.133048 0.948035 -0.282375 -0.146609
-0.558160 0.256031 0.085412 -0.955830 -0.290918 -0.041907
0.142873 0.181171 0.018127 0.098841 0.786688 0.609387
0.008053 0.028152 0.142151 -0.028760 0.182862 0.982718
0.447977 -0.387841 -0.295003 0.168414 0.375039 -0.911582
-0.709568 0.410634 0.241896 -0.364726 0.209809 0.907169
-0.311308 0.143476 -0.244986 -0.179060 0.668253 -0.722064
-0.593342 0.389932 0.340005 -0.491659 0.603878 0.627377
0.564239 -0.116535 -0.211701 0.464627 -0.273453 -0.842226
-0.508763 0.112175 0.013465 -0.907583 -0.417676 0.042881
-0.007320 -0.016543 0.150018 -0.028760 0.182862 0.982718
0.251725 -0.176169 0.073995 0.247709 -0.829520 0.500537
-0.286361 0.385152 0.441382 -0.082946 -0.995344 0.049086
-0.172713 0.273004 -0.126093 0.187137 0.702143 -0.687005
-0.479711 0.461743 0.299883 -0.179987 0.981769 -0.061109
0.676105 -0.401889 0.214385 0.861319 -0.506247 -0.042933
0.753015 -0.301412 0.143205 0.806731 -0.543970 -0.230829
0.666444 -0.342207 0.212799 0.341534 0.225472 0.912424
0.251359 0.199026 0.010035 -0.209688 0.812891 0.543359
0.678567 0.075144 -0.108049 0.958887 -0.253032 -0.128496
-0.440049 -0.016452 -0.144942 -0.964268 -0.034028 -0.262733
0.795008 0.333453 0.094785 0.271044 0.911328 -0.309863
-0.566100 0.166216 0.322757 -0.859177 -0.509221 -0.050080
-0.588642 0.232540 0.258550 -0.964318 -0.232404 -0.126807
-0.301609 0.295689 0.238898 0.499658 -0.132055 0.856098
0.507628 -0.156652 -0.134774 0.187599 -0.912659 0.363127
0.674509 0.550891 0.334396 -0.380733 0.713379 -0.588330
0.111230 -0.266127 -0.099977 0.214037 -0.975564 0.049635
-0.614450 0.337043 0.170487 -0.299114 -0.912690 -0.278437
0.587137 0.191040 0.070265 0.080067 0.691132 0.718279
0.152183 0.101481 0.101379 0.097353 0.562109 0.821313
0.622287 -0.415820 0.183422 -0.230921 -0.091257 -0.968683
0.066790 -0.166445 -0.277524 0.195691 -0.662428 -0.723114
0.598883 -0.222569 0.116858 -0.387262 -0.797009 -0.463470
0.506457 0.140371 -0.198210 0.135718 0.615462 -0.776394
-0.067496 0.180680 0.095194 0.447628 0.408221 0.795603
-0.086996 -0.298700 -0.118973 0.274833 -0.922050 0.272564
-0.026058 0.120482 0.097840 -0.017289 0.590055 0.807178
-0.367588 0.395567 0.379889 -0.118871 -0.540464 0.832928
0.218951 -0.045747 -0.253486 0.316150 -0.103426 -0.943055
0.225367 0.135822 0.077956 -0.001710 0.543095 0.839670
0.319419 -0.000010 0.126141 0.149902 0.127864 0.980398
-0.243332 0.176250 0.169548 0.667535 -0.212088 0.713734
0.169379 -0.242032 -0.137897 0.239265 -0.720240 -0.651158
0.157166 -0.260676 -0.079844 -0.070060 -0.982015 0.175321
0.713819 -0.356108 0.198146 0.955352 -0.283934 0.081761
0.420734 -0.398370 -0.265063 -0.457646 0.128223 0.879840
-0.461457 -0.102924 -0.106615 -0.641703 -0.073977 0.763377
-0.517622 0.083864 0.312112 0.202235 -0.970031 0.134687
-0.556371 0.215848 0.174297 -0.768628 -0.348606 -0.536364
-0.460322 -0.342033 0.034374 -0.418355 -0.109459 0.901664
-0.579365 0.189227 0.288114 -0.818219 -0.572311 -0.054559
0.225805 -0.157213 0.099458 0.119549 -0.155315 0.980604
-0.061391 0.029223 0.142154 0.265009 0.247078 0.932053
-0.599444 0.317214 0.203005 -0.736860 -0.671358 -0.079472
-0.237685 0.257944 -0.157874 0.173347 0.776975 -0.605194
-0.462398 -0.142403 -0.149415 -0.305016 0.182350 -0.934726
0.281930 -0.511474 -0.318914 -0.804514 0.471452 -0.361235
-0.389469 0.348899 0.382380 0.859105 0.321390 0.398306
0.681445 0.563594 0.354878 -0.295255 0.953160 0.065650
-0.521113 0.296497 0.436971 -0.273867 0.493075 0.825757
-0.495082 0.017081 0.064065 0.024983 -0.863008 0.504571
-0.267752 0.434475 0.442282 -0.099228 0.981663 0.162763
0.334272 -0.472028 -0.367730 -0.099781 0.330584 -0.938487
-0.229656 0.307318 0.090056 0.385683 0.726255 0.569036
-0.774182 0.404646 0.332964 0.986698 0.142902 -0.077495
0.041387 -0.263169 -0.148351 0.176052 -0.879113 -0.442907
-0.734000 0.365520 0.272392 0.347078 -0.793037 0.500629
-0.361228 -0.330499 -0.368582 -0.772847 -0.186238 0.606649
0.609567 -0.480531 0.268321 0.576550 0.017293 0.816879
0.424790 -0.108272 -0.270217 -0.340831 0.017144 -0.939968
0.700598 -0.259099 0.129060 0.144702 0.174820 -0.973909
0.694387 0.472528 0.338837 -0.121461 -0.121136 0.985177
-0.279227 0.387194 0.494833 -0.082946 -0.995344 0.049086
-0.408466 0.446865 0.218422 0.149612 0.948686 0.278589
0.312071 0.211549 -0.123719 -0.164676 0.972236 -0.166250
-0.503449 -0.558245 -0.562810 0.059903 -0.884575 -0.462536
-0.596227 0.416116 0.312440 -0.623138 0.428085 0.654556
0.292422 0.204777 -0.133088 -0.171223 0.618870 -0.766605
0.611455 0.443390 0.289332 -0.398667 -0.504193 -0.766064
-0.596435 0.441808 0.232872 -0.247763 0.884155 -0.396085
0.167533 0.174697 -0.173211 0.119082 0.756673 -0.642858
0.462590 -0.221148 -0.247702 -0.235206 -0.186224 -0.953939
-0.521420 0.086257 0.312951 -0.447365 -0.733408 0.511836
-0.199327 -0.063917 0.173746 -0.030487 -0.345371 0.937971
-0.549543 0.400857 0.167315 -0.192452 0.866737 -0.460141
-0.187373 -0.085269 0.166273 -0.030487 -0.345371 0.937971
0.070566 -0.184955 0.105449 -0.014312 -0.422082 0.906445
0.236977 -0.250837 -0.126558 0.500983 -0.249465 -0.828724
0.603613 -0.509769 0.273103 0.512524 0.022086 0.858389
-0.378265 -0.032264 -0.280084 -0.922285 0.042229 -0.384197
-0.315412 0.209596 0.240577 0.887939 -0.201355 0.413546
0.571109 -0.200451 -0.080516 -0.415958 0.204626 -0.886063
-0.469952 -0.042238 -0.113731 -0.763648 0.526223 -0.374073
0.514757 0.128399 0.140559 -0.005257 0.191222 0.981533
0.069552 -0.274289 -0.052141 0.183890 -0.981248 0.057772
0.692142 0.050320 0.009927 0.914663 -0.060012 -0.399737
0.425674 0.186626 0.089511 0.048074 0.885750 0.461667
0.605756 0.406911 0.308481 -0.310992 -0.050740 0.949057
-0.473678 -0.413432 0.015545 0.158807 -0.401265 0.902090
0.677888 0.306150 0.010091 -0.210874 0.904604 -0.370437
0.171227 -0.192187 0.091063 0.285532 -0.734648 0.615438
-0.723471 -0.535116 -0.070339 -0.780520 0.620445 0.076404
-0.539139 0.199102 0.158933 -0.943077 -0.287407 -0.167340
0.215454 0.028608 0.136674 0.058776 0.375839 0.924819
-0.448031 0.140892 0.294241 0.485446 -0.871594 -0.068301
0.073086 -0.072292 -0.300772 0.073565 -0.092521 -0.992989
0.048575 0.075215 -0.283174 0.171932 0.520814 -0.836177
0.107176 -0.078095 0.154912 0.018600 -0.435351 0.900069
-0.340566 -0.362707 -0.389873 0.516007 -0.707990 0.482169
-0.358074 -0.152403 0.137611 -0.347208 -0.199666 0.916286
0.224927 0.217859 -0.036512 0.132212 0.990556 -0.036303
-0.479032 -0.378228 0.026636 -0.393662 0.122982 0.910992
-0.387520 0.006815 -0.248215 -0.939009 0.070195 -0.336651
0.166686 0.076501 -0.262400 0.347711 0.263916 -0.899692
0.313468 -0.150347 0.084774 0.355088 -0.882843 0.307411
0.676305 -0.399926 0.195253 0.861319 -0.506247 -0.042933
-0.544661 0.193120 0.186258 -0.349400 -0.744030 -0.569508
-0.094477 -0.284229 -0.164039 0.144609 -0.867517 -0.475924
-0.304373 0.386600 0.218358 0.800774 0.576156 0.163724
-0.509603 0.410298 0.096014 -0.650772 0.706486 -0.278162
-0.417480 -0.065353 0.091341 -0.934521 0.058934 0.350995
-0.515675 0.203646 0.481672 0.164460 0.601715 0.781596
-0.202123 -0.193948 0.119830 0.286453 -0.556693 0.779768
-0.589684 0.288240 0.208185 -0.896099 -0.015170 -0.443594
-0.361497 0.244998 0.320305 0.680397 -0.519070 0.517326
0.611549 -0.096575 -0.176705 0.806122 -0.392077 -0.443219
-0.251029 0.350973 0.289081 0.565081 0.125181 -0.815483
-0.294350 0.405437 0.482015 -0.834731 0.328786 -0.441729
0.625233 -0.136182 0.183201 0.194205 0.150570 0.969336
-0.098988 0.272410 -0.039842 0.423477 0.904431 -0.051693
0.713118 -0.277513 0.201260 0.431572 -0.048748 0.900760
0.372515 0.155579 -0.208879 -0.032194 0.460213 -0.887225
-0.551037 -0.392207 -0.026286 -0.765815 0.633518 -0.110375
-0.355623 0.444831 0.578434 -0.336602 -0.758771 0.557643
-0.616360 0.351664 0.252350 -0.975045 -0.101229 -0.197586
-0.470793 0.151037 0.445243 0.762675 0.168190 0.624531
0.170819 0.224141 -0.053121 0.103787 0.971929 -0.211146
-0.102125 -0.117902 -0.306990 0.068332 -0.035059 -0.997046
-0.563398 0.298278 0.417123 -0.541297 0.232697 0.807991
0.314160 0.217529 -0.088608 -0.151203 0.977199 -0.149060
0.198286 0.149150 0.067402 -0.170624 0.823232 0.541458
-0.717781 0.361717 0.246892 0.486778 -0.856796 -0.170143
-0.500254 0.106286 0.449095 0.466428 -0.879039 0.098668
0.684184 0.335922 0.247055 -0.220105 0.751623 -0.621785
-0.583138 0.195415 0.466036 -0.864447 0.423757 0.270482
-0.370699 -0.405766 -0.431023 0.488617 -0.662542 0.567708
0.112568 -0.242421 0.010573 0.343175 -0.812876 0.470598
0.191029 0.197212 -0.124125 -0.014340 0.933475 -0.358355
-0.480528 -0.071893 -0.114451 -0.855649 -0.377340 0.354231
-0.128651 0.066901 0.164718 0.219737 0.252912 0.942206
0.569142 -0.171897 0.201243 -0.299791 -0.145202 0.942890
0.388169 -0.470610 -0.347589 0.421422 0.437656 -0.794267
0.208825 -0.123562 -0.244152 0.463724 -0.419756 -0.780234
0.722439 0.342171 0.276822 0.459641 -0.348521 0.816862
0.639875 0.357389 0.292376 -0.271983 -0.602236 0.750558
-0.793862 0.363699 0.321816 0.045362 -0.909072 0.414162
-0.181377 -0.018254 -0.345894 0.104512 0.014511 -0.994418
-0.596528 0.262691 0.353088 -0.834558 -0.501604 0.227831
-0.507402 0.204428 -0.070853 -0.774990 -0.201070 -0.599134
0.478991 -0.010807 -0.251348 0.226349 0.193901 -0.954551
-0.542981 0.204704 0.170093 -0.349400 -0.744030 -0.569508
-0.625432 0.347717 0.323981 -0.975287 -0.107065 -0.193269
-0.300157 0.434510 0.383970 0.069857 0.997544 -0.005137
0.657192 -0.119777 0.161228 0.587072 0.202799 0.783721
-0.746318 0.385159 0.268818 0.491297 0.318858 0.810529
-0.077318 -0.300892 -0.143423 0.360830 -0.857038 -0.367813
0.644427 0.519262 0.363284 0.170939 -0.440436 0.881360
0.460963 -0.217714 -0.176349 -0.294083 -0.504485 0.811795
0.605030 0.250106 -0.028558 0.007296 0.490401 -0.871466
-0.541611 0.406134 0.154283 -0.783681 0.582019 -0.217023
-0.158042 -0.173987 0.107207 0.493492 -0.571911 0.655273
-0.040936 0.244673 -0.117450 0.318033 0.817420 -0.480291
0.094632 0.220393 -0.039190 0.058628 0.745615 0.663793
0.467233 -0.268501 -0.226410 -0.833170 -0.433218 -0.343729
-0.325555 0.345228 -0.052552 0.268405 0.863257 -0.427488
0.214825 0.138780 0.076021 -0.001710 0.543095 0.839670
-0.064403 -0.147282 0.103748 -0.157459 -0.416991 0.895168
0.184894 -0.141383 -0.245804 0.442820 -0.681386 -0.582772
-0.128696 -0.312694 -0.129620 0.005142 -0.985671 0.168599
-0.118070 0.155664 0.137542 0.372499 0.231060 0.898808
0.672160 0.037098 -0.078056 0.948035 -0.282375 -0.146609
-0.163744 0.023128 0.179067 0.275822 -0.012047 0.961133
-0.188770 -0.240283 -0.242600 0.087833 -0.802426 -0.590252
-0.358465 -0.283344 -0.354196 -0.431786 -0.221149 0.874445
0.336744 -0.121125 -0.194245 -0.109133 -0.904497 -0.412281
0.634161 0.529720 0.364777 0.031208 0.035366 0.998887
0.685646 -0.104931 0.122439 0.978106 -0.200397 0.056124
0.744386 -0.304600 0.136713 0.614733 -0.565533 -0.549796
0.665734 0.063670 -0.132779 0.616029 0.158314 -0.771651
0.552323 0.166303 -0.158759 0.236462 0.642689 -0.728722
0.359166 0.028171 0.132461 -0.034046 -0.136384 0.990071
0.687018 -0.066010 0.035967 0.855847 0.026310 -0.516560
0.311940 0.033479 0.122262 0.323690 0.453008 0.830668
0.720776 -0.294185 0.129916 -0.090312 -0.314125 -0.945076
-0.552481 0.237771 0.092769 -0.907316 -0.418564 -0.039780
-0.356807 -0.305614 -0.359009 -0.431786 -0.221149 0.874445
-0.522913 0.452991 0.320962 -0.049301 0.977893 0.203211
-0.238501 -0.085278 0.164897 0.001611 -0.294139 0.955761
-0.580790 0.239486 0.207502 -0.972176 -0.100535 -0.211583
0.430484 -0.099203 -0.268974 0.021797 0.153406 -0.987923
0.040273 -0.092256 -0.301030 0.055731 -0.113595 -0.991963
0.511987 -0.155283 -0.133585 0.187599 -0.912659 0.363127
-0.335030 0.288033 0.278295 0.705077 -0.482935 0.519269
0.104585 -0.155286 -0.276934 0.143528 -0.356051 -0.923378
0.421064 -0.085965 -0.267126 0.021797 0.153406 -0.987923
0.674389 -0.128459 0.143797 0.809932 0.133319 0.571172
0.659800 -0.411143 0.231950 0.745359 0.195929 0.637222
-0.058229 0.044969 -0.297641 0.112877 0.532124 -0.839109
-0.107875 0.003632 0.162414 0.505266 -0.020154 0.862728
-0.102660 -0.167208 -0.293267 -0.045688 -0.382079 -0.923000
-0.534415 0.077153 0.236503 -0.567876 -0.817308 0.097591
0.448108 -0.210852 -0.176742 -0.294083 -0.504485 0.811795
0.527835 -0.153266 0.064885 -0.256714 -0.836648 -0.483858
0.624430 0.229432 -0.042993 0.079894 0.788812 -0.609420
0.593843 0.419898 0.293971 -0.626245 0.182524 -0.757959
0.588458 0.470202 0.323190 -0.966719 0.064279 -0.247633
0.595899 -0.126158 -0.027804 0.927003 -0.123802 0.354033
-0.267653 -0.238961 0.102251 0.068687 -0.458493 0.886040
0.166687 -0.079610 0.145968 0.155408 -0.392941 0.906337
0.681512 0.138036 -0.052736 0.949446 0.231318 0.212237
0.387242 0.216270 -0.101805 0.051703 0.990863 -0.124570
0.050020 -0.046900 -0.304847 0.073565 -0.092521 -0.992989
-0.232491 0.154031 -0.245872 0.034651 0.647594 -0.761197
-0.453197 0.285070 -0.077521 -0.144242 0.598171 -0.788281
-0.419633 0.306522 0.417821 0.394186 -0.501198 0.770336
-0.322984 0.437450 0.380839 0.242662 0.919247 -0.310000
-0.480425 0.414375 0.379255 -0.271655 0.677386 0.683632
0.295181 -0.527882 -0.351301 -0.161047 -0.892215 -0.421919
-0.214155 -0.178598 -0.366768 0.875404 -0.389423 -0.286385
0.009691 0.055948 -0.296885 0.252709 0.405755 -0.878352
-0.513413 0.037732 0.048822 -0.882581 0.373097 -0.286093
-0.331044 0.436592 0.368320 0.069857 0.997544 -0.005137
-0.355843 -0.115181 0.148115 -0.590551 -0.247471 0.768120
0.534471 -0.043747 -0.233039 0.457150 0.124575 -0.880622
