ply
format ascii 1.0
element vertex 849
property float x
property float y
property float z
property float nx
property float ny
property float nz
end_header
2.263184 1.980118 -1.661170 -0.352507 0.459310 0.815336
2.254395 1.976156 -1.663364 0.048636 0.610839 0.790259
2.254395 1.982329 -1.665092 0.000331 -0.245373 -0.969429
2.263184 1.980163 -1.661182 -0.352507 0.459310 0.815336
2.263215 1.980147 -1.661154 -0.352507 0.459310 0.815336
2.474121 1.977687 -1.672564 0.237918 -0.433580 -0.869139
2.482910 1.979789 -1.671399 -0.298320 0.436822 0.848641
2.491699 1.974609 -1.664221 0.431666 -0.432052 -0.791830
2.491699 1.983708 -1.669228 0.403065 -0.435059 -0.805147
2.492794 1.984406 -1.668842 -0.502858 0.410780 0.760522
2.500488 1.980108 -1.661175 0.503795 -0.401081 -0.765065
2.500488 1.980178 -1.661209 0.503795 -0.401081 -0.765065
2.500550 1.980147 -1.661154 0.503795 -0.401081 -0.765065
2.263184 2.463486 -1.300305 -0.046056 0.410408 0.910738
2.271973 2.462873 -1.299199 -0.053634 0.414918 0.908277
2.280762 2.462747 -1.298971 -0.037545 0.395733 0.917598
2.289551 2.462379 -1.298306 -0.050575 0.391108 0.918954
2.298340 2.462003 -1.297628 -0.046477 0.392262 0.918678
2.307129 2.461727 -1.297130 -0.036970 0.390448 0.919882
2.315918 2.461473 -1.296672 -0.016607 0.397454 0.917472
2.324707 2.461456 -1.296640 -0.009606 0.390404 0.920594
2.333496 2.461344 -1.296438 -0.020551 0.385200 0.922604
2.342285 2.461160 -1.296106 0.045193 -0.372997 -0.926731
2.351074 2.460727 -1.295326 -0.074337 0.339171 0.937783
2.395020 2.460475 -1.294869 -0.003524 -0.572892 0.819623
2.403809 2.460376 -1.294692 0.000127 0.476173 0.879352
2.412598 2.460479 -1.294877 -0.030456 -0.407614 -0.912646
2.421387 2.460803 -1.295462 -0.071728 -0.365914 -0.927881
2.430176 2.461430 -1.296593 0.049017 0.408676 0.911362
2.438965 2.461385 -1.296513 0.012245 0.416311 0.909140
2.447754 2.461730 -1.297135 0.020148 0.399826 0.916370
2.456543 2.461601 -1.296903 -0.024195 0.378566 0.925258
2.465332 2.461384 -1.296511 -0.104309 0.365521 0.924940
2.263184 1.971814 -1.655722 0.185310 -0.498943 -0.846591
2.254395 1.971691 -1.655790 -0.063871 0.680301 0.730144
2.271973 1.974915 -1.654004 0.013280 0.032159 0.999395
2.280762 1.971906 -1.655671 0.102777 0.173975 0.979372
2.289551 1.971896 -1.655676 0.002969 -0.275917 -0.961177
2.298340 1.971971 -1.655635 -0.003354 0.272316 0.962202
2.500488 1.970444 -1.656481 -0.474645 0.426660 0.769853
2.509277 1.975680 -1.653580 -0.490402 0.415325 0.766166
2.509561 1.975888 -1.653465 0.469677 -0.402720 -0.785633
2.482910 1.988177 -1.675650 -0.232281 0.437305 0.868798
2.491699 1.984959 -1.669841 -0.458560 0.441044 0.771494
2.263184 2.054307 -1.740643 -0.016500 -0.094611 0.995378
2.254395 2.054629 -1.741201 0.013257 -0.464299 -0.885579
2.254395 2.053887 -1.740875 0.013257 -0.464299 -0.885579
2.263184 2.054324 -1.740650 -0.016500 -0.094611 0.995378
2.264016 2.054317 -1.740637 -0.016500 -0.094611 0.995378
2.535688 2.018589 -1.639860 0.995040 -0.009670 -0.099005
2.535645 2.018862 -1.640353 0.995040 -0.009670 -0.099005
2.535645 2.018350 -1.639992 0.986594 -0.126009 -0.103696
2.386230 2.004857 -1.705762 -0.144736 0.443731 0.884395
2.395020 2.003863 -1.703969 -0.137297 0.437444 0.888703
2.403809 2.002764 -1.701985 -0.156107 0.404656 0.901046
2.412598 2.001616 -1.699911 0.177685 -0.379553 -0.907947
2.104980 1.977393 -1.692821 -0.153916 -0.376669 -0.913472
2.104980 1.977665 -1.692951 -0.153916 -0.376669 -0.913472
2.104119 1.977547 -1.692736 -0.163852 -0.456789 -0.874355
2.113770 1.976187 -1.693489 -0.132795 -0.431208 -0.892427
2.113770 1.978642 -1.694713 0.136075 0.424799 0.895002
2.122559 1.974869 -1.694219 0.126074 0.412847 0.902033
2.122559 1.979693 -1.696612 0.133592 0.434494 0.890712
2.131348 1.973773 -1.694826 -0.116750 -0.426891 -0.896735
2.131348 1.980617 -1.698279 0.107398 0.440074 0.891516
2.140137 1.972648 -1.695449 0.111023 0.421994 0.899775
2.140137 1.981342 -1.699588 0.104060 0.417463 0.902716
2.148926 1.971610 -1.696025 -0.093288 -0.409036 -0.907737
2.157715 1.970831 -1.696456 -0.092486 -0.434874 -0.895729
2.166504 1.969883 -1.696982 -0.066817 -0.242885 -0.967751
2.263184 2.044947 -1.735780 0.028946 -0.403807 -0.914386
2.254395 2.044667 -1.735935 0.008290 -0.412854 -0.910760
2.271973 2.045309 -1.735580 -0.030577 0.450275 0.892366
2.271973 2.054233 -1.740485 -0.007454 0.321825 0.946770
2.280762 2.045324 -1.735572 0.017557 -0.472197 -0.881318
2.280762 2.054245 -1.740508 0.032540 -0.468484 -0.882873
2.289551 2.045630 -1.735402 0.041407 -0.443789 -0.895174
2.289551 2.053746 -1.739608 0.062300 -0.423430 -0.903784
2.298340 2.046098 -1.735143 0.041834 -0.435602 -0.899167
2.298340 2.053341 -1.738876 -0.041085 0.457760 0.888126
2.307129 2.046417 -1.734966 0.043889 -0.451886 -0.890995
2.307129 2.053140 -1.738512 -0.036080 0.453520 0.890516
2.315918 2.046914 -1.734691 0.050597 -0.442982 -0.895102
2.315918 2.052727 -1.737768 -0.050097 0.459949 0.886531
2.324707 2.047364 -1.734441 -0.054491 0.420118 0.905832
2.324707 2.052333 -1.737056 -0.065920 0.442363 0.894410
2.333496 2.047936 -1.734124 0.077065 -0.453180 -0.888082
2.333496 2.051752 -1.736007 -0.086552 0.415943 0.905263
2.342285 2.048730 -1.733685 0.077103 -0.439311 -0.895020
2.342285 2.051100 -1.734830 -0.078707 0.419782 0.904206
2.351074 2.049380 -1.733325 0.082414 -0.478702 -0.874101
2.351074 2.050595 -1.733919 -0.085005 0.390181 0.916806
2.358454 2.050058 -1.732949 0.105175 -0.327334 -0.939037
2.271973 1.976397 -1.654384 -0.124423 0.331216 0.935315
2.307129 1.971966 -1.655638 0.001668 0.271874 0.962331
2.298340 1.978029 -1.657330 -0.002934 0.272887 0.962042
2.307129 1.978033 -1.657338 0.004964 0.276837 0.960904
2.315918 1.971950 -1.655647 0.003817 0.275778 0.961214
2.315918 1.978137 -1.657525 -0.004421 -0.590406 -0.807094
2.509277 1.976058 -1.653772 -0.478852 0.382142 0.790359
2.061035 1.967628 -1.678135 -0.235632 -0.444343 -0.864313
2.061035 1.970085 -1.679265 0.234310 0.399530 0.886270
2.055889 1.969029 -1.677359 0.254909 0.396542 0.881916
2.069824 1.965640 -1.679237 0.211626 0.401618 0.891020
2.069824 1.971622 -1.682041 0.210099 0.416076 0.884725
2.078613 1.963449 -1.680450 -0.221616 -0.385836 -0.895554
2.078613 1.973205 -1.684898 -0.210351 -0.397447 -0.893190
2.087402 1.971309 -1.686144 -0.202716 -0.419042 -0.885048
2.079047 1.973288 -1.685048 -0.210351 -0.397447 -0.893190
2.096191 1.969508 -1.687141 0.187103 0.409702 0.892825
2.104980 1.967752 -1.688114 0.164689 0.430740 0.887322
2.113770 1.966303 -1.688917 -0.151180 -0.422600 -0.893619
2.535645 2.007143 -1.636152 0.992142 0.069272 -0.104187
2.535645 2.018562 -1.639812 0.995040 -0.009670 -0.099005
2.087402 1.974734 -1.687658 0.211481 0.392666 0.895036
2.096191 1.976268 -1.690428 0.191045 0.424349 0.885116
2.333496 2.038486 -1.729311 0.109451 -0.476182 -0.872509
2.342285 2.039330 -1.728844 0.103332 -0.419494 -0.901858
2.351074 2.040456 -1.728221 -0.097384 0.470447 0.877038
2.359863 2.040998 -1.727920 -0.085660 0.466084 0.880584
2.359863 2.049927 -1.732713 0.105175 -0.327334 -0.939037
2.368652 2.041989 -1.727372 0.119979 -0.448191 -0.885850
2.368652 2.048970 -1.730983 -0.126759 0.448439 0.884779
2.377441 2.043244 -1.726676 -0.126050 0.444675 0.886778
2.377441 2.047990 -1.729216 -0.128947 0.446543 0.885422
2.386230 2.044341 -1.726069 0.129097 -0.461154 -0.877878
2.386230 2.046963 -1.727362 -0.136323 0.433024 0.891014
2.395020 2.045616 -1.725362 0.144178 -0.436961 -0.887850
2.395020 2.045952 -1.725535 0.142519 -0.422265 -0.895199
2.396341 2.045799 -1.725261 0.144178 -0.436961 -0.887850
2.386230 2.035022 -1.721183 0.141663 -0.424033 -0.894498
2.395020 2.036289 -1.720481 -0.143268 0.461997 0.875234
2.403809 2.037599 -1.719756 0.141165 -0.458418 -0.877454
2.412598 2.029688 -1.714090 0.168892 -0.419302 -0.891999
2.412598 2.038917 -1.719026 -0.156510 0.461024 0.873477
2.421387 2.031516 -1.713078 0.191283 -0.439189 -0.877795
2.421387 2.040482 -1.718159 0.206090 -0.504427 -0.838499
2.425957 2.041541 -1.717572 -0.233254 0.448651 0.862731
2.430176 2.033321 -1.712078 -0.180430 0.445764 0.876778
2.430176 2.040624 -1.715917 -0.198115 0.459385 0.865861
2.438965 2.034884 -1.711212 0.190668 -0.462942 -0.865639
2.438965 2.039317 -1.713558 -0.191924 0.452201 0.871022
2.447754 2.036813 -1.710144 0.201124 -0.445356 -0.872472
2.447754 2.037653 -1.710554 0.201124 -0.445356 -0.872472
2.450077 2.037282 -1.709884 -0.199124 0.446415 0.872389
2.535645 2.004744 -1.633004 0.957280 0.150531 0.246891
2.403809 2.044836 -1.723521 -0.145090 0.451571 0.880360
2.412598 2.043734 -1.721533 -0.157535 0.431276 0.888360
2.421387 2.042443 -1.719201 -0.203083 0.440154 0.874655
2.043457 1.962900 -1.670707 -0.311222 -0.408667 -0.857982
2.043457 1.966078 -1.672032 0.316334 0.357315 0.878783
2.038472 1.964770 -1.669671 0.331701 0.360815 0.871658
2.052246 1.960126 -1.672244 0.263973 0.388445 0.882853
2.052246 1.968220 -1.675900 0.254909 0.396542 0.881916
2.061035 1.957569 -1.673660 -0.224875 -0.335426 -0.914834
2.263184 2.466234 -1.301473 0.048573 -0.413611 -0.909158
2.271973 2.466908 -1.301100 0.053143 -0.405129 -0.912714
2.271973 2.476185 -1.305093 -0.076407 0.276183 0.958063
2.280762 2.467277 -1.300895 -0.037636 0.393457 0.918572
2.280762 2.475855 -1.304498 0.035944 -0.376413 -0.925754
2.289551 2.467757 -1.300629 -0.049927 0.403183 0.913756
2.289551 2.475687 -1.304194 -0.037840 0.398821 0.916247
2.298340 2.468206 -1.300380 -0.049123 0.399066 0.915605
2.298340 2.475259 -1.303420 -0.069238 0.382104 0.921522
2.307129 2.468694 -1.300110 -0.032338 0.385211 0.922262
2.307129 2.474751 -1.302503 -0.040474 0.384098 0.922405
2.315918 2.468899 -1.299997 -0.027672 0.392517 0.919328
2.315918 2.474686 -1.302387 -0.025523 0.381627 0.923964
2.324707 2.469124 -1.299872 -0.024505 0.374921 0.926733
2.324707 2.474422 -1.301910 -0.040553 0.352108 0.935081
2.333496 2.469316 -1.299765 -0.056100 0.364873 0.929366
2.333496 2.474247 -1.301594 -0.059171 0.333022 0.941061
2.342285 2.470135 -1.299312 -0.045323 0.348039 0.936384
2.342285 2.473732 -1.300665 -0.044062 0.355060 0.933805
2.351074 2.470338 -1.299200 0.013622 -0.351801 -0.935976
2.351074 2.473604 -1.300433 -0.013431 0.343992 0.938877
2.359863 2.470406 -1.299162 0.050031 -0.351338 -0.934911
2.359863 2.473551 -1.300337 -0.055879 0.358453 0.931874
2.368652 2.471326 -1.298652 0.016742 -0.355022 -0.934708
2.368652 2.472931 -1.299219 0.016742 -0.355022 -0.934708
2.377441 2.470736 -1.298979 0.032021 0.377565 0.925429
2.377441 2.473326 -1.299931 0.041384 0.357075 0.933159
2.386230 2.470820 -1.298932 0.004619 0.401553 0.915824
2.386230 2.473454 -1.300162 0.008864 0.401053 0.916012
2.395020 2.470788 -1.298950 -0.012690 -0.419500 -0.907667
2.395020 2.473493 -1.300233 0.011949 0.402421 0.915377
2.403809 2.470553 -1.299080 0.004393 0.395927 0.918271
2.403809 2.473617 -1.300457 0.002354 0.398840 0.917017
2.412598 2.470550 -1.299082 -0.037054 -0.362373 -0.931296
2.412598 2.473445 -1.300146 0.023386 0.390476 0.920316
2.421387 2.469648 -1.299582 0.079877 0.395878 0.914823
2.421387 2.474001 -1.301150 0.077478 0.374166 0.924120
2.430176 2.469097 -1.299887 0.053896 0.379530 0.923608
2.430176 2.474504 -1.302058 0.046298 0.363078 0.930608
2.438965 2.468728 -1.300092 0.026070 0.402839 0.914899
2.438965 2.474721 -1.302451 0.019153 0.353810 0.935121
2.447754 2.468704 -1.300104 -0.023073 0.376137 0.926277
2.447754 2.474775 -1.302548 -0.013881 0.355426 0.934601
2.456543 2.469051 -1.299912 -0.051949 0.364732 0.929662
2.456543 2.474452 -1.301964 -0.054121 0.370263 0.927349
2.465332 2.469725 -1.299539 -0.067038 0.348917 0.934753
2.465332 2.474072 -1.301279 -0.063280 0.381969 0.922006
2.474121 2.470427 -1.299151 0.165884 -0.483581 -0.859437
2.474121 2.473588 -1.300404 -0.148438 0.389187 0.909120
2.482093 2.472314 -1.298105 -0.209406 0.519489 0.828421
2.438965 2.025387 -1.706425 0.188130 -0.412011 -0.891546
2.447754 2.027419 -1.705300 0.214698 -0.443038 -0.870415
2.456543 2.029470 -1.704164 -0.201246 0.456010 0.866922
2.456543 2.036104 -1.707758 -0.198055 0.463974 0.863425
2.465332 2.031126 -1.703247 0.208713 -0.454578 -0.865909
2.465332 2.034450 -1.704772 -0.222890 0.414814 0.882184
2.472960 2.033023 -1.702196 -0.223303 0.480685 0.847984
2.025879 1.959395 -1.662601 -0.367170 -0.381407 -0.848360
2.025879 1.961245 -1.663307 0.363754 0.330301 0.870968
2.023426 1.960511 -1.661983 0.388978 0.330573 0.859894
2.034668 1.955953 -1.664508 0.337119 0.348652 0.874524
2.034668 1.963667 -1.667679 0.331701 0.360815 0.871658
2.017090 1.958402 -1.658175 0.391246 0.340877 0.854827
2.465332 2.022359 -1.698055 0.227522 -0.434693 -0.871364
2.474121 2.024442 -1.696902 -0.222647 0.461596 0.858695
2.474121 2.032752 -1.701707 0.232897 -0.395271 -0.888549
2.482910 2.026496 -1.695764 0.338017 -0.529375 -0.778143
2.482910 2.030664 -1.697936 -0.341902 0.439009 0.830888
2.487655 2.028764 -1.694507 -0.411889 0.407778 0.814901
2.535645 2.034749 -1.650896 0.980179 0.026770 -0.196297
2.535691 2.034794 -1.650978 0.980179 0.026770 -0.196297
2.535645 2.034675 -1.651044 0.980179 0.026770 -0.196297
2.421387 2.003288 -1.698572 0.210367 -0.441079 -0.872465
2.430176 2.005184 -1.697522 -0.198657 0.448473 0.871440
2.438965 1.997629 -1.691660 0.212296 -0.462992 -0.860563
2.438965 2.007045 -1.696491 0.181756 -0.445389 -0.876694
2.447754 1.999384 -1.690687 -0.198146 0.452809 0.869311
2.447754 2.008638 -1.695608 0.203742 -0.464298 -0.861926
2.449887 2.009129 -1.695336 -0.231381 0.425170 0.875039
2.456543 2.001423 -1.689558 -0.193605 0.433654 0.880035
2.456543 2.007807 -1.692950 -0.208349 0.450447 0.868152
2.465332 2.003109 -1.688624 0.231565 -0.504998 -0.831477
2.465332 2.006308 -1.690244 -0.232381 0.426385 0.874183
2.471708 2.004870 -1.687648 -0.257243 0.492023 0.831708
2.535645 2.034946 -1.651251 0.980179 0.026770 -0.196297
2.131348 1.993007 -1.704267 -0.094484 -0.468008 -0.878659
2.131348 1.994350 -1.704934 0.096360 0.414075 0.905128
2.124068 1.993752 -1.703854 -0.123137 -0.269411 -0.955120
2.140137 1.992204 -1.704712 -0.087548 -0.438146 -0.894630
2.140137 1.994987 -1.706083 0.089750 0.420297 0.902937
2.148926 1.991350 -1.705184 0.088866 0.418097 0.904045
2.148926 1.995652 -1.707283 0.091666 0.437845 0.894365
2.157715 1.990474 -1.705670 0.080592 0.423766 0.902179
2.157715 1.996358 -1.708558 0.091046 0.425345 0.900440
2.166504 1.989838 -1.706023 -0.072431 -0.437693 -0.896202
2.166504 1.997018 -1.709749 0.083342 0.449027 0.889623
2.175293 1.989112 -1.706425 0.058720 0.444655 0.893775
2.175293 1.997615 -1.710827 -0.062963 -0.403928 -0.912621
2.184082 1.988737 -1.706632 0.072838 0.438342 0.895852
2.184082 1.997893 -1.711329 -0.039785 -0.437993 -0.898098
2.192871 1.997759 -1.711682 -0.049395 -0.302233 -0.951953
2.186991 1.998011 -1.711542 0.042248 0.456048 0.888951
2.192871 1.987836 -1.707131 -0.063502 -0.417371 -0.906515
2.201660 1.987512 -1.707311 -0.035477 -0.419880 -0.906886
2.201660 1.997117 -1.712038 -0.050480 -0.438405 -0.897359
2.210449 1.987164 -1.707504 -0.054883 -0.419916 -0.905902
2.210449 1.996806 -1.712210 -0.027457 -0.434694 -0.900159
2.219238 1.986464 -1.707891 -0.036220 -0.435044 -0.899681
2.219238 1.996593 -1.712328 -0.026739 -0.429703 -0.902575
2.228027 1.986464 -1.707891 -0.007747 -0.429944 -0.902822
2.228027 1.996282 -1.712500 -0.019678 -0.430003 -0.902613
2.236816 1.986308 -1.707978 -0.001289 0.456977 0.889477
2.236816 1.996224 -1.712533 0.002921 0.431652 0.902035
2.245605 1.986476 -1.707884 0.012236 -0.446662 -0.894619
2.245605 1.996251 -1.712518 0.010365 -0.451427 -0.892248
2.271973 2.477142 -1.305478 0.074292 -0.458043 -0.885820
2.280762 2.477647 -1.305198 0.035944 -0.376413 -0.925754
2.289551 2.477838 -1.305092 0.047160 -0.355798 -0.933372
2.298340 2.478637 -1.304650 0.065335 -0.381169 -0.922194
2.307129 2.479065 -1.304413 0.037983 -0.381429 -0.923618
2.315918 2.479308 -1.304278 0.036801 -0.364463 -0.930490
2.324707 2.480044 -1.303871 0.045622 -0.333002 -0.941822
2.333496 2.480482 -1.303628 0.044844 -0.339636 -0.939487
2.342285 2.480789 -1.303458 -0.047445 0.356149 0.933224
2.351074 2.481218 -1.303220 -0.024082 0.355378 0.934412
2.359863 2.481312 -1.303168 -0.004031 0.346893 0.937896
2.368652 2.481266 -1.303194 -0.030923 0.402289 0.914990
2.377441 2.481570 -1.303025 0.014416 0.373723 0.927428
2.386230 2.480969 -1.303358 0.030644 0.387080 0.921537
2.395020 2.480848 -1.303425 0.011977 0.398838 0.916943
2.403809 2.480821 -1.303440 0.007716 0.391363 0.920204
2.412598 2.480736 -1.303487 0.041790 0.412380 0.910053
2.421387 2.480168 -1.303802 0.058044 0.375486 0.925009
2.430176 2.479609 -1.304112 0.043921 0.374889 0.926029
2.438965 2.479481 -1.304182 -0.017111 -0.356997 -0.933949
2.447754 2.479333 -1.304264 -0.013671 0.361196 0.932390
2.456543 2.479623 -1.304104 0.045947 -0.377027 -0.925062
2.465332 2.480128 -1.303824 -0.064422 0.372948 0.925613
2.474121 2.480971 -1.303357 -0.123512 0.376776 0.918033
2.465332 1.994266 -1.683475 0.272135 -0.403111 -0.873753
2.474121 1.996871 -1.682032 0.252565 -0.466307 -0.847802
2.482910 1.989314 -1.676170 0.275383 -0.279826 -0.919707
2.482910 1.998967 -1.680871 0.298958 -0.508656 -0.807399
2.486868 2.000612 -1.679960 -0.345043 0.452200 0.822472
2.491699 1.992975 -1.674142 -0.413345 0.419993 0.807931
2.491699 1.999141 -1.677305 -0.397665 0.429112 0.811002
2.497044 1.996353 -1.672271 -0.510271 0.395236 0.763814
2.474121 2.004223 -1.686480 -0.269719 0.494474 0.826286
2.482910 2.001964 -1.682402 -0.309750 0.460431 0.831900
2.096191 1.989109 -1.696379 -0.191224 -0.452474 -0.871034
2.096191 1.989798 -1.696716 -0.184816 -0.409511 -0.893389
2.094323 1.989494 -1.696166 0.210846 0.406733 0.888882
2.104980 1.987523 -1.697257 0.164277 0.401843 0.900853
2.104980 1.991058 -1.698990 0.171389 0.419257 0.891543
2.113770 1.985910 -1.698151 0.158138 0.426409 0.890600
2.113770 1.992338 -1.701300 0.169903 0.428926 0.887218
2.122559 1.984532 -1.698914 0.136472 0.447335 0.883893
2.122559 1.993600 -1.703579 -0.123137 -0.269411 -0.955120
2.131348 1.983338 -1.699575 -0.111804 -0.427162 -0.897236
2.140137 1.982407 -1.700091 -0.103573 -0.445402 -0.889320
2.351074 1.983901 -1.659074 -0.007142 0.302998 0.952965
2.342285 1.983856 -1.659099 -0.015013 0.295622 0.955187
2.342285 1.990256 -1.661265 -0.015013 0.295622 0.955187
2.351074 1.990133 -1.661043 -0.013796 0.289621 0.957042
2.359863 1.983861 -1.659096 0.299966 -0.657421 -0.691244
2.359863 1.990082 -1.660950 -0.311370 0.286131 0.906189
2.365752 1.987835 -1.656895 0.466424 -0.548716 -0.693801
2.500488 1.989075 -1.666256 0.500445 -0.410985 -0.762001
2.505618 1.992094 -1.664583 -0.492147 0.423598 0.760498
2.509277 1.990058 -1.660908 -0.480955 0.451568 0.751511
2.509277 1.985328 -1.658284 -0.477556 0.441624 0.759545
2.512934 1.987835 -1.656895 -0.468071 0.443768 0.764185
2.192871 1.998211 -1.711902 0.044033 0.559950 0.827356
2.201660 1.998716 -1.712816 -0.050480 -0.438405 -0.897359
2.210449 1.998958 -1.713253 0.029691 0.414872 0.909395
2.219238 1.999117 -1.713538 0.027370 0.409735 0.911794
2.228027 1.999335 -1.713933 0.023405 0.411935 0.910913
2.236816 1.999406 -1.714061 0.004697 0.425301 0.905040
2.245605 1.999397 -1.714045 -0.011212 0.433016 0.901316
2.482910 2.472065 -1.297655 -0.209406 0.519489 0.828421
2.491699 2.469152 -1.292395 0.350170 -0.387336 -0.852849
2.535645 2.018634 -1.639835 0.995040 -0.009670 -0.099005
2.518066 1.980707 -1.650796 -0.450924 0.432547 0.780750
2.523873 1.983576 -1.649206 -0.454059 0.530703 0.715671
2.526855 1.982340 -1.646974 0.794679 -0.194748 -0.574942
2.430176 2.012632 -1.701660 -0.175529 0.471401 0.864275
2.438965 2.010977 -1.698673 -0.194924 0.446682 0.873201
2.447754 2.009538 -1.696075 0.201194 -0.447231 -0.871496
2.263184 2.064104 -1.745264 0.011654 -0.409628 -0.912178
2.254395 2.064066 -1.745285 -0.010400 0.419346 0.907767
2.271973 2.054429 -1.740575 0.007105 -0.585253 -0.810820
2.271973 2.064297 -1.745157 0.026586 -0.412480 -0.910579
2.280762 2.054412 -1.740585 0.032540 -0.468484 -0.882873
2.280762 2.064627 -1.744974 0.021029 -0.417938 -0.908232
2.289551 2.055052 -1.740230 0.062300 -0.423430 -0.903784
2.289551 2.064736 -1.744914 0.018431 -0.423259 -0.905822
2.298340 2.055600 -1.739927 0.041175 -0.428758 -0.902481
2.298340 2.064985 -1.744776 0.031373 -0.422974 -0.905599
2.307129 2.055826 -1.739802 0.038443 -0.439814 -0.897266
2.307129 2.065306 -1.744598 0.045978 -0.417040 -0.907724
2.315918 2.056270 -1.739556 0.057545 -0.428678 -0.901622
2.315918 2.065855 -1.744294 0.064243 -0.451257 -0.890078
2.321977 2.066264 -1.744067 -0.067360 0.446295 0.892347
2.324707 2.056964 -1.739171 -0.079464 0.441575 0.893698
2.324707 2.066074 -1.743724 0.075565 -0.332668 -0.940012
2.333496 2.057839 -1.738687 -0.084741 0.427584 0.899995
2.333496 2.065388 -1.742486 -0.079475 0.450925 0.889016
2.342285 2.058542 -1.738297 0.068909 -0.435304 -0.897642
2.342285 2.064891 -1.741589 -0.064653 0.445518 0.892935
2.351074 2.059137 -1.737967 -0.071533 0.437941 0.896153
2.351074 2.064436 -1.740767 -0.072841 0.433263 0.898319
2.359863 2.059847 -1.737574 0.100409 -0.456687 -0.883943
2.359863 2.063738 -1.739507 -0.111968 0.417239 0.901873
2.368652 2.060964 -1.736956 0.106426 -0.444019 -0.889675
2.368652 2.062855 -1.737912 -0.108054 0.421087 0.900561
2.377441 2.061850 -1.736465 0.113598 -0.392701 -0.912623
2.377441 2.062133 -1.736610 0.113598 -0.392701 -0.912623
2.378684 2.062005 -1.736379 0.121061 -0.474877 -0.871686
2.307129 1.988072 -1.666811 -0.000059 0.270819 0.962631
2.298340 1.988081 -1.666806 -0.000926 0.589149 0.808024
2.298340 1.994314 -1.668591 -0.000059 0.270819 0.962631
2.307129 1.994273 -1.668516 -0.000059 0.270819 0.962631
2.315918 1.988068 -1.666814 0.000026 0.268502 0.963279
2.315918 1.994305 -1.668575 0.000026 0.268502 0.963279
2.324707 1.988085 -1.666804 -0.132776 0.578593 0.804737
2.324707 1.994280 -1.668530 -0.104958 0.210414 0.971962
2.330598 1.992094 -1.664583 -0.312492 0.269208 0.910975
2.500488 1.994536 -1.668993 -0.504310 0.394292 0.768248
2.069824 1.985103 -1.688550 -0.218056 -0.373324 -0.901710
2.069824 1.985338 -1.688663 -0.218056 -0.373324 -0.901710
2.069323 1.985235 -1.688477 -0.226761 -0.422591 -0.877494
2.078613 1.983320 -1.689538 -0.191278 -0.425957 -0.884293
2.078613 1.986762 -1.691234 0.192724 0.424466 0.884695
2.087402 1.981429 -1.690586 0.209901 0.410084 0.887566
2.087402 1.988242 -1.693907 0.202766 0.427089 0.881182
2.096191 1.979246 -1.691795 -0.200883 -0.378243 -0.903647
2.359863 2.050243 -1.732847 0.105175 -0.327334 -0.939037
2.368652 2.051509 -1.732145 0.130476 -0.424452 -0.896000
2.377441 2.052715 -1.731477 -0.136105 0.462445 0.876139
2.386230 2.053992 -1.730770 0.130859 -0.459104 -0.878692
2.386230 2.061086 -1.734720 -0.140134 0.472468 0.870136
2.395020 2.055146 -1.730131 -0.139232 0.446901 0.883682
2.395020 2.059969 -1.732703 -0.152462 0.438672 0.885620
2.403809 2.056601 -1.729325 0.146468 -0.462790 -0.874284
2.403809 2.058778 -1.730551 -0.141688 0.460239 0.876416
2.411744 2.057746 -1.728690 0.155028 -0.443414 -0.882808
2.034668 1.976575 -1.673179 -0.347297 -0.340695 -0.873677
2.034668 1.976817 -1.673280 -0.347297 -0.340695 -0.873677
2.034335 1.976717 -1.673101 -0.352892 -0.359683 -0.863768
2.043457 1.973345 -1.674969 0.312059 0.366784 0.876407
2.043457 1.979172 -1.677532 0.305392 0.382726 0.871927
2.052246 1.980374 -1.681122 -0.291613 -0.404983 -0.866574
2.050461 1.980976 -1.680789 0.304943 0.394292 0.866916
2.052246 1.970179 -1.676722 -0.274368 -0.330677 -0.902981
2.061035 1.977654 -1.682629 0.252546 0.394317 0.883592
2.069824 1.975454 -1.683848 -0.216639 -0.406221 -0.887723
2.078613 1.973396 -1.684988 -0.210351 -0.397447 -0.893190
2.368652 1.986430 -1.654358 -0.190096 0.385798 0.902786
2.368652 1.979668 -1.651371 0.058418 -0.481974 -0.874236
2.359863 1.979690 -1.651359 0.259694 -0.625179 -0.736010
2.377441 1.979650 -1.651382 0.077284 -0.315004 -0.945939
2.377441 1.985727 -1.653088 -0.070715 0.300290 0.951223
2.518066 1.985799 -1.653219 -0.434751 0.397756 0.807949
2.403809 2.047080 -1.724552 0.153551 -0.411897 -0.898200
2.412598 2.048567 -1.723728 -0.157415 0.445530 0.881319
2.412598 2.057635 -1.728489 0.155028 -0.443414 -0.882809
2.421387 2.050028 -1.722919 -0.167412 0.445577 0.879451
2.421387 2.056426 -1.726305 -0.167669 0.447329 0.878512
2.430176 2.051727 -1.721978 0.197994 -0.488285 -0.849927
2.430176 2.055034 -1.723793 -0.195566 0.456435 0.867998
2.438333 2.053488 -1.721002 0.207382 -0.467040 -0.859574
2.430176 2.042724 -1.716917 0.209077 -0.498137 -0.841515
2.438965 2.044276 -1.716057 -0.185800 0.453123 0.871870
2.447754 2.046244 -1.714967 -0.210746 0.452413 0.866550
2.456543 2.038688 -1.709106 0.211459 -0.410031 -0.887220
2.456543 2.048216 -1.713875 0.188021 -0.404074 -0.895194
2.461959 2.049229 -1.713314 -0.176987 0.486526 0.855552
2.465332 2.040948 -1.707853 -0.199694 0.458569 0.865931
2.465332 2.048697 -1.712353 -0.176987 0.486525 0.855552
2.474121 2.042345 -1.707079 0.234192 -0.517054 -0.823291
2.474121 2.047166 -1.709590 -0.237991 0.426521 0.872606
2.482785 2.044970 -1.705625 0.305238 -0.403112 -0.862746
2.052246 1.981421 -1.681593 -0.287928 -0.389255 -0.874973
2.061035 1.983478 -1.685306 0.258160 0.394769 0.881766
2.438965 2.053367 -1.720783 0.202314 -0.433979 -0.877913
2.447754 2.051815 -1.717982 -0.207762 0.452445 0.867253
2.456543 2.050061 -1.714815 -0.178917 0.456702 0.871442
2.025879 1.970135 -1.666699 0.371469 0.337092 0.865090
2.025879 1.974089 -1.668355 0.391952 0.334503 0.857019
2.020945 1.972459 -1.665412 0.396233 0.323539 0.859256
2.034668 1.966356 -1.668793 -0.341119 -0.338164 -0.877088
2.482910 2.472648 -1.297920 -0.209406 0.519489 0.828421
2.491699 2.477563 -1.295198 -0.442265 0.318814 0.838308
2.491699 2.482061 -1.297563 0.529319 -0.451966 -0.718017
2.495007 2.480003 -1.293846 -0.544292 0.352603 0.761195
2.474121 2.033354 -1.702012 0.232897 -0.395271 -0.888549
2.482910 2.035730 -1.700696 -0.352789 0.450711 0.819999
2.482910 2.044931 -1.705554 0.305238 -0.403112 -0.862746
2.491699 2.040558 -1.698022 0.465202 -0.508808 -0.724363
2.491699 2.040869 -1.698221 0.465202 -0.508808 -0.724363
2.491994 2.040712 -1.697937 0.465202 -0.508808 -0.724363
2.017090 1.963571 -1.660288 0.391242 0.332239 0.858223
2.017090 1.971208 -1.663154 0.408289 0.320659 0.854680
2.008571 1.968200 -1.657724 -0.440465 -0.301254 -0.845717
1.999512 1.964787 -1.651562 0.469717 0.294683 0.832182
2.008301 1.968102 -1.657546 -0.440465 -0.301253 -0.845717
2.175293 1.966121 -1.653970 -0.080542 0.420141 0.903877
2.184082 1.964000 -1.650142 -0.088455 0.467081 0.879779
2.192871 1.966146 -1.654017 0.202426 0.304455 0.930769
2.201660 1.966174 -1.654066 0.003878 0.210869 0.977507
2.210449 1.966179 -1.654076 0.006516 0.118781 0.992899
2.219238 1.959967 -1.652237 0.002987 0.292026 0.956406
2.219238 1.966223 -1.654155 0.013115 -0.154989 0.987829
2.228027 1.959965 -1.652238 0.005235 0.308558 0.951191
2.228027 1.966260 -1.654222 0.031850 0.229282 0.972839
2.236816 1.960014 -1.652211 0.001435 0.314451 0.949273
2.236816 1.966381 -1.654441 -0.001708 0.300621 0.953742
2.245605 1.959978 -1.652231 -0.003805 0.315369 0.948961
2.245605 1.966304 -1.654302 -0.007987 0.294587 0.955591
2.535775 2.062947 -1.665525 0.975325 0.032930 -0.218306
2.535645 2.063229 -1.666034 0.975326 0.032947 -0.218297
2.535645 2.062667 -1.665681 0.975324 0.032930 -0.218306
2.491699 2.030654 -1.693461 0.438741 -0.367693 -0.819944
2.500488 2.035805 -1.690608 -0.484475 0.431647 0.760897
2.500488 2.037022 -1.691276 -0.484475 0.431647 0.760897
2.501491 2.036453 -1.690249 -0.470803 0.443230 0.762818
2.535645 2.034849 -1.650948 0.980179 0.026770 -0.196297
2.456543 2.010888 -1.694362 0.220775 -0.439679 -0.870598
2.465332 2.012799 -1.693304 -0.202196 0.433390 0.878231
2.474121 2.005624 -1.687231 0.259630 -0.443515 -0.857838
2.474121 2.014725 -1.692237 0.256738 -0.488083 -0.834183
2.480932 2.016818 -1.691078 -0.285852 0.435801 0.853444
2.482910 2.008080 -1.685870 -0.321186 0.449253 0.833673
2.482910 2.016237 -1.690029 -0.285852 0.435801 0.853444
2.491699 2.012024 -1.683686 -0.443096 0.449498 0.775640
2.491699 2.013031 -1.684242 -0.443096 0.449498 0.775640
2.492659 2.012559 -1.683390 -0.443096 0.449498 0.775640
2.087402 2.000803 -1.699948 -0.187299 -0.426316 -0.884971
2.087402 2.001963 -1.700537 0.191253 0.416144 0.888958
2.084145 2.001441 -1.699595 0.189443 0.444496 0.875520
2.096191 1.999024 -1.700934 0.180836 0.414515 0.891895
2.096191 2.003367 -1.703074 0.190008 0.432516 0.881378
2.104980 1.997309 -1.701884 0.179480 0.433959 0.882874
2.104980 2.004851 -1.705752 0.172481 0.446765 0.877868
2.113770 2.005151 -1.707587 -0.145563 -0.506702 -0.849744
2.110385 2.005700 -1.707284 0.174512 0.406018 0.897048
2.113770 1.995614 -1.702823 -0.170833 -0.409298 -0.896265
2.122559 1.993949 -1.703745 -0.123137 -0.269411 -0.955120
2.122559 2.004126 -1.708155 -0.124314 -0.463933 -0.877104
2.131348 2.002853 -1.708860 0.112004 0.428678 0.896488
2.140137 2.002026 -1.709318 -0.100244 -0.446370 -0.889216
2.148926 2.000977 -1.709900 0.098342 0.454425 0.885340
2.157715 2.000261 -1.710296 -0.088241 -0.423958 -0.901374
2.166504 1.999398 -1.710774 -0.089618 -0.403654 -0.910512
2.175293 1.998508 -1.711267 -0.062963 -0.403928 -0.912621
2.184082 1.998160 -1.711460 -0.040580 -0.463326 -0.885258
2.157715 2.009698 -1.715116 -0.057247 -0.503778 -0.861934
2.157715 2.010165 -1.715345 -0.053334 -0.421369 -0.905320
2.153642 2.009959 -1.714972 0.066298 0.441122 0.894995
2.166504 2.009283 -1.715346 -0.069249 -0.426890 -0.901648
2.166504 2.010494 -1.715938 -0.069249 -0.426890 -0.901648
2.175293 2.008369 -1.715852 -0.069923 -0.434204 -0.898097
2.175293 2.011167 -1.717154 0.075066 0.427749 0.900775
2.184082 2.007975 -1.716071 0.047431 0.450123 0.891706
2.184082 2.011538 -1.717823 0.053456 0.423345 0.904390
2.192871 2.007587 -1.716285 0.045578 0.433919 0.899798
2.192871 2.011969 -1.718601 0.050033 0.450083 0.891584
2.201660 2.007121 -1.716544 0.039970 0.425506 0.904072
2.201660 2.012319 -1.719234 0.039667 0.452243 0.891013
2.210449 2.006755 -1.716746 -0.029333 -0.436048 -0.899445
2.210449 2.012599 -1.719739 0.028390 0.447631 0.893768
2.219238 2.006570 -1.716849 -0.023852 -0.435602 -0.899823
2.219238 2.012793 -1.720089 0.014880 0.447763 0.894028
2.228027 2.006307 -1.716995 -0.027718 -0.425475 -0.904546
2.228027 2.012884 -1.720254 0.037018 0.444342 0.895092
2.236816 2.006044 -1.717140 -0.014100 -0.452128 -0.891842
2.236816 2.013324 -1.721047 0.014869 0.451383 0.892206
2.245605 2.006045 -1.717140 -0.007522 -0.442908 -0.896535
2.245605 2.013202 -1.720828 -0.004093 0.458817 0.888521
2.491699 2.002399 -1.678970 -0.356692 0.513604 0.780373
2.500488 1.998416 -1.671129 0.490142 -0.403831 -0.772451
2.500488 2.008194 -1.675760 0.476737 -0.411305 -0.776885
2.500659 2.008300 -1.675701 0.476737 -0.411305 -0.776885
2.509277 2.003599 -1.668258 0.476715 -0.405476 -0.779957
2.509277 2.004395 -1.668651 -0.484208 0.403624 0.776293
2.509843 2.004041 -1.668013 0.476715 -0.405476 -0.779957
2.061035 1.997147 -1.691926 -0.251822 -0.370211 -0.894164
2.061035 1.997208 -1.691955 -0.251822 -0.370211 -0.894164
2.060920 1.997182 -1.691907 -0.251822 -0.370211 -0.894164
2.069824 1.995045 -1.693091 -0.217117 -0.438043 -0.872341
2.069824 1.998890 -1.694991 0.218519 0.430989 0.875498
2.078613 1.993018 -1.694214 0.203758 0.431290 0.878904
2.078613 2.000548 -1.697983 0.190039 0.434577 0.880357
2.087402 1.991143 -1.695252 -0.205154 -0.428390 -0.879996
2.113770 2.006152 -1.708101 -0.138081 -0.440089 -0.887274
2.122559 2.007051 -1.709724 0.125311 0.449407 0.884495
2.131348 2.008106 -1.711629 0.114921 0.448176 0.886527
2.140137 2.008866 -1.713001 0.100502 0.466187 0.878959
2.148926 2.009675 -1.714461 0.068780 0.568818 0.819583
2.500488 2.008397 -1.675876 0.476737 -0.411305 -0.776885
2.351074 1.995635 -1.662622 0.014459 -0.275876 -0.961084
2.342285 1.995413 -1.662745 0.129410 -0.340444 -0.931317
2.359863 1.995727 -1.662571 -0.005654 0.264922 0.964253
2.368652 1.990372 -1.655490 -0.212828 0.587145 0.781002
2.368652 1.995779 -1.662542 -0.020466 0.577892 0.815857
2.377441 1.991642 -1.654786 -0.123510 0.687998 0.715126
2.377441 1.995823 -1.662518 0.057375 0.663345 0.746111
2.386230 1.991648 -1.654783 -0.228924 0.733049 0.640495
2.386230 1.995793 -1.662534 -0.172694 0.598480 0.782304
2.509277 1.994231 -1.663399 -0.492806 0.434632 0.753815
2.518066 1.990189 -1.655591 0.463515 -0.435087 -0.771915
2.518066 1.999366 -1.660555 0.492238 -0.411530 -0.767037
2.518666 1.999782 -1.660324 -0.510673 0.406468 0.757626
2.526855 1.994886 -1.652989 0.714848 -0.354892 -0.602532
2.526855 1.996051 -1.653588 0.910434 -0.169702 -0.377241
2.527338 1.995524 -1.652636 0.910434 -0.169702 -0.377241
2.465332 2.020135 -1.697067 -0.216792 0.439506 0.871686
2.474121 2.018498 -1.694112 -0.255019 0.421566 0.870200
2.500488 2.477207 -1.288799 -0.550664 0.356382 0.754825
2.052246 1.990307 -1.685668 -0.294231 -0.447117 -0.844698
2.052246 1.995028 -1.688018 0.302387 0.404698 0.863007
2.044537 1.992923 -1.684219 0.307773 0.404836 0.861036
2.061035 1.987694 -1.687115 -0.258556 -0.380219 -0.888022
2.280762 1.988321 -1.646578 0.062670 -0.451359 0.890139
2.278952 1.991265 -1.644948 0.062670 -0.451359 0.890139
2.280762 1.990312 -1.643228 0.062670 -0.451359 0.890139
2.284440 1.991265 -1.644948 0.037278 -0.461775 0.886214
2.526855 1.985435 -1.648177 -0.651888 0.199023 0.731732
2.529535 1.991265 -1.644948 0.892333 -0.201144 -0.404083
2.324707 2.066512 -1.743930 0.075565 -0.332668 -0.940012
2.333496 2.067385 -1.743446 0.084552 -0.407000 -0.909506
2.342285 2.068172 -1.743010 0.069821 -0.403141 -0.912470
2.351074 2.068783 -1.742672 -0.084030 0.438764 0.894665
2.359863 2.069747 -1.742138 -0.106232 0.440730 0.891331
2.368652 2.070719 -1.741600 -0.095606 0.448458 0.888676
2.377441 2.071624 -1.741098 -0.105467 0.437924 0.892804
2.386230 2.063194 -1.735721 0.147570 -0.400979 -0.904124
2.386230 2.072660 -1.740524 0.112345 -0.479326 -0.870417
2.395020 2.064725 -1.734872 -0.148849 0.467250 0.871505
2.395020 2.073647 -1.739978 0.130795 -0.481008 -0.866905
2.397372 2.073952 -1.739808 -0.146813 0.489438 0.859591
2.403809 2.065888 -1.734228 0.138676 -0.469115 -0.872181
2.403809 2.073085 -1.738242 -0.149726 0.473066 0.868211
2.412598 2.067284 -1.733455 -0.147331 0.458034 0.876640
2.412598 2.071808 -1.735937 -0.158197 0.455312 0.876165
2.421387 2.068648 -1.732699 0.145506 -0.465533 -0.872987
2.421387 2.070601 -1.733759 -0.145677 0.452941 0.879558
2.428471 2.069694 -1.732120 -0.143504 0.490705 0.859427
2.412598 2.057897 -1.728607 0.155028 -0.443414 -0.882809
2.421387 2.059502 -1.727718 0.164000 -0.416763 -0.894099
2.430176 2.061050 -1.726860 -0.182474 0.473590 0.861636
2.430176 2.069455 -1.731689 0.162163 -0.406689 -0.899059
2.438965 2.062811 -1.725885 -0.180722 0.483316 0.856589
2.438965 2.067935 -1.728944 -0.184648 0.487829 0.853187
2.447754 2.064346 -1.725035 0.204026 -0.507823 -0.836953
2.447754 2.066359 -1.726099 -0.211346 0.474453 0.854533
2.452297 2.065435 -1.724432 -0.228473 0.478772 0.847689
2.359863 2.001926 -1.664194 -0.005308 0.265507 0.964095
2.368652 2.001952 -1.664240 -0.000964 0.263225 0.964734
2.377441 2.001954 -1.664245 0.000161 0.268717 0.963219
2.386230 2.001964 -1.664262 -0.172694 0.598479 0.782304
2.392870 1.999782 -1.660324 -0.172694 0.598480 0.782303
2.518066 2.000107 -1.660911 -0.502384 0.412364 0.759978
2.025879 1.980729 -1.670879 0.390505 0.346003 0.853105
2.025879 1.987045 -1.673607 0.383499 0.362460 0.849442
2.018121 1.984406 -1.668842 0.395048 0.349815 0.849451
2.034668 1.987063 -1.677417 -0.363804 -0.384099 -0.848596
2.030839 1.988665 -1.676530 0.376319 0.367805 0.850355
2.043457 1.983468 -1.679408 -0.318238 -0.349318 -0.881306
2.438965 2.053653 -1.720911 0.207382 -0.467040 -0.859574
2.447754 2.055589 -1.719838 0.203534 -0.432475 -0.878373
2.456543 2.057532 -1.718762 -0.219004 0.471433 0.854276
2.456543 2.064551 -1.722836 -0.228473 0.478772 0.847689
2.465332 2.059624 -1.717603 0.189394 -0.436464 -0.879562
2.465332 2.062587 -1.719290 -0.172145 0.484403 0.857741
2.474006 2.061176 -1.716743 0.189212 -0.453138 -0.871129
2.465332 2.049940 -1.712920 0.192983 -0.386788 -0.901750
2.474121 2.051992 -1.711783 -0.214228 0.447765 0.868109
2.482910 2.045015 -1.705600 0.305238 -0.403112 -0.862746
2.482910 2.054000 -1.710671 0.308995 -0.517716 -0.797804
2.490040 2.056917 -1.709055 -0.359731 0.445634 0.819758
2.491699 2.048409 -1.703720 -0.434315 0.480576 0.761851
2.491699 2.056349 -1.708030 -0.427912 0.453823 0.781624
2.498287 2.052659 -1.701367 -0.522795 0.401411 0.752033
2.034668 1.989846 -1.678663 0.373942 0.369278 0.850765
2.043457 1.992624 -1.683678 -0.336220 -0.371848 -0.865266
2.474121 2.061160 -1.716714 0.189212 -0.453138 -0.871129
2.482910 2.059400 -1.713536 -0.265589 0.463585 0.845312
2.008301 1.979106 -1.661730 -0.448064 -0.336512 -0.828250
2.008301 1.980848 -1.662420 0.451586 0.321629 0.832241
2.006497 1.980147 -1.661154 0.465668 0.320158 0.825016
2.017090 1.974451 -1.664309 -0.406430 -0.312908 -0.858430
2.017090 1.984061 -1.668221 0.411320 0.333312 0.848363
2.219238 1.979482 -1.661522 -0.028294 0.710875 0.702749
2.218211 1.980147 -1.661154 0.274008 0.643381 0.714829
2.219238 1.980500 -1.661791 -0.015407 -0.551695 0.833903
2.228027 1.980124 -1.661166 -0.030829 0.649965 0.759338
2.228027 1.980159 -1.661176 -0.030829 0.649965 0.759338
2.236816 1.976150 -1.663368 0.050107 0.595231 0.801991
2.236816 1.982321 -1.665079 0.055903 0.429947 0.901122
2.245605 1.980111 -1.661174 0.090668 0.466468 0.879879
2.245605 1.980166 -1.661189 0.090668 0.466468 0.879879
2.535645 2.062876 -1.665396 0.975325 0.032930 -0.218306
2.500488 2.483664 -1.291818 0.602010 -0.299486 -0.740197
2.503944 2.487691 -1.289587 0.807803 -0.209632 -0.550916
1.999512 1.973616 -1.654724 0.471357 0.303521 0.828068
1.999512 1.977387 -1.656170 0.480813 0.307529 0.821124
1.995930 1.975888 -1.653465 0.486279 0.306450 0.818304
2.008301 1.968354 -1.657639 -0.440465 -0.301253 -0.845717
2.166504 1.971923 -1.655662 -0.410316 -0.558686 -0.720771
2.161410 1.975888 -1.653465 0.570328 0.726547 0.383217
2.166504 1.978087 -1.657435 0.342979 0.267384 0.900484
2.175293 1.971953 -1.655645 0.004097 0.286532 0.958062
2.175293 1.978194 -1.657627 0.014148 0.288773 0.957293
2.184082 1.971893 -1.655678 -0.002619 -0.501754 -0.865007
2.184082 1.978280 -1.657782 0.011408 -0.205289 0.978635
2.192871 1.971907 -1.655670 0.003923 0.291846 0.956457
2.192871 1.978260 -1.657746 -0.002537 0.293241 0.956035
2.201660 1.971857 -1.655698 0.003979 0.366423 0.930440
2.201660 1.978223 -1.657681 0.010331 0.646102 0.763181
2.210449 1.971848 -1.655703 -0.577703 0.534388 0.617000
2.210449 1.978471 -1.658127 0.190324 0.349878 0.917258
2.219238 1.973487 -1.654795 0.086642 -0.996062 -0.018806
2.228027 1.973008 -1.655060 -0.115101 -0.502517 -0.856871
2.236816 1.971483 -1.655905 0.130012 0.690133 0.711908
2.245605 1.971622 -1.655828 0.011520 -0.477997 -0.878286
2.254395 2.067881 -1.746986 -0.012308 0.410832 0.911628
2.263184 2.067868 -1.746963 -0.013143 0.405154 0.914154
2.271973 2.067721 -1.746697 -0.027695 0.409401 0.911934
2.280762 2.067499 -1.746296 -0.018690 0.415198 0.909539
2.289551 2.067446 -1.746202 -0.020530 0.408810 0.912389
2.298340 2.067237 -1.745824 -0.034164 0.403454 0.914362
2.307129 2.066971 -1.745344 0.045978 -0.417040 -0.907724
2.315918 2.066569 -1.744617 -0.065276 0.375413 0.924556
2.500488 2.051434 -1.699155 -0.519751 0.398377 0.755748
2.500488 2.044705 -1.695725 -0.451297 0.426167 0.784036
2.506283 2.048400 -1.693678 -0.499848 0.393088 0.771773
1.990723 1.973760 -1.649623 0.489857 0.295620 0.820152
2.166504 1.972716 -1.647739 0.873537 0.360451 0.327121
2.210449 1.973090 -1.648413 0.187430 -0.965479 0.180888
2.201660 1.973418 -1.649005 0.319682 -0.935862 0.148211
2.219238 1.972892 -1.648057 0.099817 0.963711 0.247583
2.535645 2.063075 -1.665455 0.975325 0.032930 -0.218306
2.509277 2.047033 -1.691211 -0.491732 0.390565 0.778241
2.509277 2.040620 -1.687941 -0.461733 0.426977 0.777492
2.515418 2.044141 -1.685990 -0.461025 0.399599 0.792324
2.131348 2.021683 -1.718525 -0.097035 -0.462364 -0.881365
2.131348 2.022078 -1.718714 -0.093545 -0.416967 -0.904095
2.128905 2.021905 -1.718402 0.103400 0.432262 0.895800
2.140137 2.020844 -1.718989 -0.094451 -0.431374 -0.897215
2.140137 2.022732 -1.719895 0.095018 0.420972 0.902084
2.148926 2.019895 -1.719515 -0.086424 -0.448585 -0.889552
2.148926 2.023476 -1.721238 0.094820 0.422351 0.901460
2.157715 2.019290 -1.719850 0.059903 0.443579 0.894231
2.157715 2.024094 -1.722352 0.072462 0.440331 0.894907
2.166504 2.018849 -1.720095 0.056388 0.457297 0.887525
2.166504 2.024562 -1.723197 0.056068 0.462252 0.884974
2.175293 2.018234 -1.720435 -0.058405 -0.445723 -0.893264
2.175293 2.025007 -1.724000 0.048345 0.455142 0.889106
2.184082 2.017758 -1.720699 -0.063044 -0.440995 -0.895293
2.184082 2.025324 -1.724573 0.061068 0.460065 0.885782
2.192871 2.017051 -1.721090 0.062538 0.452945 0.889342
2.192871 2.025909 -1.725631 0.054240 0.544858 0.836772
2.201660 2.025996 -1.726183 -0.038386 -0.549921 -0.834334
2.198167 2.026164 -1.726090 0.051942 0.454587 0.889186
2.201660 2.016561 -1.721362 -0.042698 -0.442924 -0.895542
2.210449 2.016240 -1.721539 -0.029242 -0.441721 -0.896676
2.210449 2.025803 -1.726290 -0.014421 -0.419197 -0.907781
2.219238 2.016059 -1.721640 0.016211 0.430895 0.902257
2.219238 2.025709 -1.726342 -0.010220 -0.418958 -0.907948
2.228027 2.015995 -1.721675 -0.034855 -0.420751 -0.906506
2.228027 2.025605 -1.726400 -0.016951 -0.423970 -0.905518
2.236816 2.015431 -1.721988 -0.023627 -0.422952 -0.905844
2.236816 2.025404 -1.726511 -0.020888 -0.423989 -0.905427
2.245605 2.015514 -1.721942 -0.002608 0.431797 0.901967
2.245605 2.025205 -1.726621 -0.012798 -0.419229 -0.907790
2.104980 2.016327 -1.711444 -0.143251 -0.468393 -0.871830
2.104980 2.018729 -1.712668 0.153528 0.423844 0.892628
2.096628 2.017647 -1.710713 -0.171209 -0.382981 -0.907752
2.113770 2.015096 -1.712126 0.145131 0.427992 0.892054
2.113770 2.019868 -1.714723 0.166962 0.460410 0.871864
2.122559 2.013526 -1.712996 -0.151664 -0.470044 -0.869515
2.122559 2.021316 -1.717338 0.101668 0.480234 0.871228
2.131348 2.012297 -1.713676 0.115562 0.454261 0.883342
2.140137 2.011353 -1.714199 -0.104805 -0.435169 -0.894228
2.148926 2.010325 -1.714769 -0.077773 -0.278576 -0.957260
2.061035 2.007061 -1.696482 -0.273245 -0.421751 -0.864560
2.061035 2.010622 -1.698031 0.276009 0.393474 0.876925
2.054607 2.009129 -1.695336 0.287530 0.404147 0.868327
2.069824 2.004649 -1.697818 0.227529 0.423501 0.876857
2.069824 2.012592 -1.701588 0.232771 0.416075 0.879033
2.078613 2.012228 -1.703668 -0.221772 -0.457164 -0.861289
2.073874 2.013388 -1.703025 0.232771 0.416075 0.879033
2.078613 2.002640 -1.698931 -0.196604 -0.393452 -0.898077
2.087402 2.010244 -1.704767 0.193379 0.446868 0.873449
2.096191 2.008636 -1.705657 0.187577 0.460069 0.867843
2.104980 2.006793 -1.706678 -0.180122 -0.402396 -0.897571
2.482910 2.017531 -1.690682 0.313654 -0.367617 -0.875488
2.491699 2.021110 -1.688700 -0.432693 0.420813 0.797304
2.497471 2.024506 -1.686819 -0.479150 0.406217 0.778076
2.500488 2.023011 -1.684121 -0.501462 0.415460 0.758900
2.500488 2.016945 -1.680960 0.504925 -0.419783 -0.754210
2.505279 2.020247 -1.679131 -0.523876 0.401009 0.751496
2.201660 2.026297 -1.726330 -0.032976 -0.370780 -0.928135
2.210449 2.026445 -1.726597 -0.014421 -0.419197 -0.907781
2.219238 2.026496 -1.726689 -0.010220 -0.418958 -0.907948
2.228027 2.026590 -1.726859 -0.016951 -0.423970 -0.905518
2.236816 2.026755 -1.727156 -0.020888 -0.423989 -0.905426
2.245605 2.026890 -1.727401 -0.012798 -0.419229 -0.907790
2.509277 2.012945 -1.673128 -0.475241 0.393290 0.787063
2.513801 2.015988 -1.671442 -0.478036 0.390591 0.786715
2.518066 2.014249 -1.668303 -0.484526 0.392630 0.781714
2.518066 2.008617 -1.665478 -0.482730 0.406516 0.775704
2.523113 2.011729 -1.663754 -0.517637 0.387100 0.763024
2.043457 2.003432 -1.688445 -0.346888 -0.409932 -0.843578
2.043457 2.006000 -1.689687 0.346935 0.390646 0.852662
2.039809 2.004870 -1.687648 0.361717 0.387299 0.848033
2.052246 2.000124 -1.690277 0.293416 0.398493 0.868971
2.052246 2.008487 -1.694178 0.287530 0.404147 0.868327
2.078613 2.014365 -1.704788 0.225608 0.441439 0.868466
2.087402 2.016033 -1.707801 0.205866 0.444978 0.871558
2.096191 2.017579 -1.710592 -0.171209 -0.382981 -0.907752
2.509277 2.018330 -1.675669 -0.480480 0.391297 0.784873
2.491699 2.027189 -1.691662 -0.432749 0.407798 0.804008
2.526855 2.004829 -1.657529 0.705656 -0.379744 -0.598201
2.528394 2.007471 -1.656066 0.909773 -0.179269 -0.374401
2.530398 2.003212 -1.648377 0.900051 -0.190987 -0.391705
2.034668 1.997182 -1.681860 0.377990 0.380104 0.844183
2.034668 2.003238 -1.684702 0.369862 0.387780 0.844292
2.027007 2.000612 -1.679960 0.386940 0.373779 0.842951
2.043457 1.993345 -1.683985 -0.336220 -0.371848 -0.865266
2.285172 2.483432 -1.281899 -0.000302 0.252984 0.967470
2.280762 2.479304 -1.284186 -0.000302 0.252984 0.967470
2.280762 2.485695 -1.285984 -0.000302 0.252984 0.967470
2.298340 2.479255 -1.284213 -0.168431 -0.251861 -0.952994
2.293930 2.483432 -1.281899 -0.000302 0.252984 0.967470
2.298340 2.485662 -1.285924 -0.168431 -0.251861 -0.952994
2.307129 2.479248 -1.284217 0.000268 0.243637 0.969866
2.307129 2.485682 -1.285960 0.000268 0.243637 0.969866
2.311583 2.483432 -1.281899 0.000268 0.243637 0.969866
2.430176 2.070010 -1.731945 0.162163 -0.406689 -0.899059
2.438965 2.071753 -1.730979 0.189016 -0.486245 -0.853135
2.447754 2.073450 -1.730039 0.187867 -0.475742 -0.859288
2.456543 2.066553 -1.723812 0.226512 -0.453785 -0.861842
2.456543 2.075222 -1.729057 0.218427 -0.485233 -0.846663
2.465188 2.077382 -1.727861 0.226111 -0.464737 -0.856092
2.465332 2.068603 -1.722677 -0.223296 0.485939 0.844986
2.465332 2.077347 -1.727799 0.226111 -0.464737 -0.856092
2.474121 2.070580 -1.721582 0.233597 -0.499563 -0.834188
2.474121 2.075455 -1.724382 -0.228949 0.486693 0.843038
2.482910 2.072808 -1.720348 0.268310 -0.454008 -0.849639
2.482910 2.073431 -1.720729 -0.277919 0.502710 0.818562
2.483863 2.073123 -1.720173 0.316064 -0.490173 -0.812302
2.403809 2.075082 -1.739183 0.155381 -0.408657 -0.899364
2.412598 2.076633 -1.738324 -0.162923 0.473371 0.865665
2.421387 2.078028 -1.737551 -0.159795 0.453200 0.876970
2.430176 2.079679 -1.736636 0.160673 -0.465184 -0.870510
2.438965 2.081043 -1.735881 0.156619 -0.474343 -0.866296
2.442595 2.081641 -1.735550 -0.165152 0.455720 0.874668
2.447754 2.080890 -1.734194 -0.164033 0.474835 0.864653
2.456543 2.079216 -1.731172 -0.219819 0.467618 0.856162
2.008301 1.989713 -1.665902 0.455800 0.330625 0.826398
2.008301 1.993744 -1.667563 0.466772 0.331620 0.819849
2.004389 1.992094 -1.664583 0.481094 0.330424 0.812015
2.017090 1.995403 -1.672797 -0.422927 -0.360792 -0.831241
2.015238 1.996353 -1.672271 0.433365 0.351169 0.829985
2.017090 1.984924 -1.668555 -0.413359 -0.336351 -0.846169
2.025879 1.991024 -1.675223 0.375553 0.364785 0.851993
2.245605 1.988161 -1.666762 0.079611 0.481783 0.872667
2.236816 1.988169 -1.666757 0.001105 0.270952 0.962592
2.236816 1.994239 -1.668455 0.105024 -0.394896 -0.912703
2.245605 1.994239 -1.668455 0.000239 0.272196 0.962242
2.474121 2.061197 -1.716732 0.189212 -0.453138 -0.871129
2.482910 2.063168 -1.715640 0.264935 -0.321892 -0.908952
2.491699 2.067052 -1.713489 -0.414974 0.479532 0.773205
2.491699 2.070489 -1.715418 -0.377688 0.475867 0.794294
2.495297 2.068865 -1.712485 -0.420732 0.477427 0.771394
2.526855 2.009767 -1.660211 0.759228 -0.230386 -0.608683
2.271973 1.995546 -1.634539 0.002835 0.849364 0.527800
2.280762 1.998526 -1.640926 0.037898 -0.414905 0.909075
2.289551 1.996277 -1.642171 0.109763 -0.904781 0.411489
2.281408 1.998953 -1.640689 -0.012252 -0.389471 0.920957
2.298340 1.998608 -1.640067 -0.115584 -0.436040 0.892474
2.298340 1.998149 -1.641134 -0.115584 -0.436040 0.892474
2.307129 1.990467 -1.643507 -0.036618 -0.594010 0.803624
2.304396 1.991265 -1.644948 -0.082021 -0.591550 0.802086
2.307129 1.997855 -1.638706 -0.052268 -0.397674 0.916037
2.315918 1.991156 -1.644752 0.110163 -0.474612 0.873274
2.315918 1.998445 -1.639771 -0.156263 0.473580 -0.866778
2.316598 1.991265 -1.644948 0.110163 -0.474612 0.873274
2.322824 1.998953 -1.640689 0.005113 -0.476085 0.879384
2.342285 1.989254 -1.641318 0.022754 -0.102763 0.994446
2.351074 1.998621 -1.640873 0.149582 0.325723 -0.933558
2.351074 1.989618 -1.641975 0.022754 -0.102763 0.994446
