ply
format ascii 1.0
comment VCGLIB generated
element vertex 745
property float x
property float y
property float z
property float nx
property float ny
property float nz
element face 0
property list uchar int vertex_indices
end_header
0.7850066 -0.540825 0.4600307 -0.09967892 0.9093023 0.4040216 
0.9414785 -0.5584074 0.3270148 0.9741685 -0.1752886 0.1423713 
0.8241422 -0.5759898 0.164425 -0.6035114 0.4332904 0.669353 
0.8631042 -0.5847811 0.4308492 0.6240207 -0.2155156 0.7511 
0.9141662 -0.6023635 0.2505105 0.8291299 -0.4151005 -0.3744799 
0.7422062 -0.6111547 0.4261014 -0.2678987 0.7385023 -0.6187445 
0.8947369 -0.6287371 0.3608644 -0.6791263 0.6796656 -0.2772042 
0.845032 -0.6463195 0.2245724 0.02241499 0.1147278 0.993144 
0.8066762 -0.6551107 0.3918057 0.1247132 -0.8622762 0.4908425 
0.7356204 -0.6639019 0.2631836 -0.6858684 0.4217797 0.5930315 
0.8431729 -0.6726931 0.302682 -0.6517493 0.7583639 0.0103447 
0.7920868 -0.6814843 0.3069143 -0.1440226 -0.8906981 0.4311779 
-0.8818831 -0.4190071 0.2893873 0.9408985 0.1919734 -0.2790272 
-0.8155895 -0.4365895 0.4184271 0.3441053 -0.4853583 -0.803753 
-0.9097905 -0.4629632 0.3577504 0.8649037 -0.4494576 -0.2234489 
-0.9118494 -0.4893368 0.233208 -0.18861 0.5476253 -0.8151888 
-0.8721786 -0.5069192 0.4297518 -0.6873176 0.2606263 0.6779885 
-0.9391368 -0.5332928 0.3127928 0.9920983 0.04326897 -0.117766 
-0.792565 -0.5508752 0.4595552 -0.13628 -0.01283697 0.9905872 
-0.8830444 -0.5596665 0.1895298 -0.7827956 -0.6023346 0.156282 
-0.9075241 -0.5772489 0.3913506 0.8047688 0.2141713 -0.5536044 
-0.7144673 -0.5948313 0.4303737 0.3518568 -0.5526209 0.7555177 
-0.9179103 -0.6036225 0.2641915 0.8282366 0.4249164 0.3653359 
-0.8353654 -0.6212049 0.425626 -0.3673952 -0.467086 0.8042707 
-0.8271405 -0.6299961 0.1906255 -0.5211502 -0.7129778 -0.4691111 
-0.6828347 -0.6387873 0.3603889 0.3823636 -0.7788161 0.497236 
-0.8895984 -0.6475785 0.3338828 0.5715426 0.7820188 -0.2485671 
-0.7325396 -0.6563697 0.2240969 0.8436891 -0.1859093 -0.5036134 
-0.7708954 -0.665161 0.3913302 0.9145537 0.2588428 0.3107924 
-0.8419512 -0.6739522 0.2627081 -0.4824705 -0.8242553 -0.2963535 
-0.7343987 -0.6827434 0.3022065 0.9549473 -0.07209907 0.2878843 
-0.7854848 -0.6915346 0.3064388 0.09153441 0.9020511 0.4218119 
0.4601758 -0.4378486 -0.8085082 0.5112008 -0.2018298 -0.8354271 
0.3126018 -0.455431 -0.8599431 0.2381717 0.3421321 0.9089664 
0.4282439 -0.4818046 -0.8766168 0.4280612 0.4150878 -0.8027862 
0.514534 -0.5081782 -0.7826416 0.6900926 0.5547438 0.464792 
0.3497607 -0.5257607 -0.9017243 -0.08103767 -0.2153499 0.9731687 
0.478335 -0.5521343 -0.8591944 -0.6564276 0.09694892 0.7481335 
0.2717692 -0.5697167 -0.8676277 0.4048562 0.1908706 0.894237 
0.5187204 -0.5785079 -0.7306182 0.3847737 -0.5729732 -0.7236373 
0.4013842 -0.5960903 -0.893208 0.2639285 -0.2500629 -0.9315634 
0.2369034 -0.6136727 -0.792966 0.7440078 0.5949562 0.3041045 
0.4914082 -0.6224639 -0.8071225 0.8078782 -0.526796 -0.2642323 
0.3276732 -0.6400464 -0.866532 0.2374908 0.5236358 0.8181709 
0.4719789 -0.6488376 -0.6967686 0.6707399 -0.7338443 -0.1076133 
0.2652153 -0.6576288 -0.7232747 0.7260237 0.6832311 -0.07800575 
0.422274 -0.66642 -0.8330606 -0.2507187 0.7959298 0.5510316 
0.3839182 -0.6752112 -0.6658273 0.4512721 -0.8919272 0.02862366 
0.3128624 -0.6840025 -0.7944494 0.8505161 -0.3600559 -0.3833826 
0.4204149 -0.6927937 -0.7549511 0.4145439 -0.9099368 -0.012973 
0.3693288 -0.7015849 -0.7507187 -0.2431234 -0.7990016 -0.5499886 
0.2853093 -0.4303164 0.8649933 0.3137037 -0.6309032 0.7096133 
0.2027961 -0.45669 0.9086241 0.3578414 -0.9065789 -0.2237505 
0.3542648 -0.4742725 0.8409578 -0.03501526 -0.7199254 0.6931676 
0.2756507 -0.5006461 0.9329289 0.3167275 0.3571128 0.878723 
0.1462071 -0.5270197 0.9199488 0.8019617 -0.5960556 0.03969017 
0.3501063 -0.5446022 0.8954167 0.7338036 0.03447047 0.6784866 
0.2258207 -0.5709758 0.9497522 0.01293918 -0.1496051 0.9886612 
0.3822925 -0.5885582 0.8167363 0.8877774 -0.356868 0.2906829 
0.1108616 -0.5973494 0.8815476 0.3012491 0.2191789 -0.9280138 
0.3039183 -0.6149318 0.9205707 0.4156848 -0.319534 0.8515305 
0.3549803 -0.6325142 0.7402321 -0.3795482 0.3972397 0.83555 
0.1830203 -0.6413054 0.9158229 -0.4014003 -0.5618445 0.7233316 
0.335551 -0.6588879 0.8505859 0.615688 -0.6183521 0.4884354 
0.1287874 -0.6676791 0.8240798 -0.12705 0.7418746 -0.6583923 
0.2858461 -0.6764703 0.7142939 0.4852305 -0.683513 -0.5453084 
0.2474903 -0.6852615 0.8815272 0.1836693 -0.8249451 0.5345383 
0.1764345 -0.6940527 0.7529051 -0.2430861 -0.8471697 0.4724539 
0.283987 -0.7028439 0.7924035 -0.3791505 -0.4395586 -0.8142685 
0.2329009 -0.7116351 0.7966359 -0.3960762 -0.3448153 0.8510147 
-0.8003991 -0.4491579 -0.4435975 0.9862594 -0.1252829 -0.1076875 
-0.7607278 -0.4755315 -0.5357704 -0.1249176 -0.9285715 0.3495006 
-0.8283064 -0.4931139 -0.3752345 -0.6663044 -0.6509432 -0.3637464 
-0.8303654 -0.5194876 -0.4997769 0.793058 -0.3812508 0.4750862 
-0.7906946 -0.53707 -0.3032331 0.9929829 0.1073207 0.04967113 
-0.7235689 -0.5458612 -0.5775517 0.7480075 0.6087946 -0.2642989 
-0.8576528 -0.5634436 -0.420192 -0.3384525 -0.5093439 0.7912135 
-0.8015605 -0.5898172 -0.5434551 0.6651936 0.2017565 0.7188962 
-0.8260401 -0.6073996 -0.3416342 -0.0672337 0.01543795 -0.9976178 
-0.6719455 -0.6161909 -0.5690354 0.2912627 0.03931602 0.9558349 
-0.8364263 -0.6337733 -0.4687934 0.850392 0.3930492 0.3497796 
-0.7538814 -0.6513557 -0.3073589 0.4265152 -0.3467158 0.8353879 
-0.7456565 -0.6601469 -0.5423594 -0.3166305 -0.6302541 -0.7088899 
-0.8081143 -0.6777293 -0.399102 0.8365548 0.5469377 -0.03217487 
-0.6510556 -0.6865205 -0.5088879 -0.4626406 -0.7549647 -0.4647493 
-0.6894115 -0.6953117 -0.3416547 0.06927927 0.8256236 -0.5599518 
-0.7604672 -0.7041029 -0.4702768 0.363439 0.9263495 0.09893841 
-0.6529147 -0.7128941 -0.4307784 -0.6739337 -0.6454359 -0.3594798 
-0.7040008 -0.7216853 -0.426546 -0.478813 -0.8234046 0.3045374 
0.8911943 -0.4679993 -0.2174393 -0.5085129 -0.1518382 0.8475611 
0.9217112 -0.494373 -0.1153279 0.3497109 0.8344188 0.4259666 
0.8592623 -0.5119554 -0.285548 0.3417935 -0.6833761 -0.6451157 
0.9455524 -0.538329 -0.1915728 0.9249801 0.3345792 -0.1801904 
0.7807792 -0.5559114 -0.3106554 -0.4518879 0.164308 0.8768125 
0.9175526 -0.5647026 -0.06086901 0.18571 -0.7520267 -0.6324299 
0.9093534 -0.582285 -0.2681255 0.4299937 -0.344406 -0.8345597 
0.9497389 -0.6086587 -0.1395494 0.9632168 -0.2539057 0.08800726 
0.8324026 -0.6262411 -0.3021392 0.7737821 0.03640391 0.632405 
0.8713647 -0.6350323 -0.03571493 0.8616689 -0.2236978 0.4555063 
0.9224267 -0.6526147 -0.2160536 0.7817493 -0.5679102 -0.2575772 
0.7504666 -0.6614059 -0.04046272 0.6602498 -0.2750214 0.6988801 
0.7586916 -0.6701971 -0.2754632 0.8162449 0.00837885 0.5776452 
0.9029974 -0.6789883 -0.1056998 -0.6791263 0.6796656 -0.2772042 
0.8532924 -0.6965708 -0.2419917 0.5936407 -0.5933611 -0.5436114 
0.8149366 -0.705362 -0.07475846 -0.3750923 0.7851073 -0.4928614 
0.7438809 -0.7141532 -0.2033806 -0.04231909 0.9988406 0.0229488 
0.8514333 -0.7229444 -0.1638822 0.1766954 -0.9842429 0.006682516 
0.8003473 -0.7317356 -0.1596498 0.2859349 -0.9497232 -0.1275427 
-0.5081528 -0.4868408 0.7645193 0.04911622 -0.02857467 0.9983842 
-0.6023538 -0.5132144 0.7038428 0.5696223 0.7604488 -0.3118461 
-0.4352983 -0.5307968 0.7888242 -0.3314266 -0.6254656 0.7063634 
-0.5647418 -0.5571705 0.7758441 -0.572562 0.2861462 0.7683054 
-0.3608427 -0.5747529 0.751312 0.2947567 -0.1964087 0.9351696 
-0.6317001 -0.5835441 0.6588852 -0.2597359 0.795311 -0.5477387 
-0.4851283 -0.6011265 0.8056476 -0.08697334 -0.1588603 0.9834628 
-0.6000874 -0.6275001 0.737443 0.7632141 0.306611 -0.5687652 
-0.4070307 -0.6450825 0.7764661 0.9896863 -0.05409773 -0.1326445 
-0.6104736 -0.6538737 0.6102839 0.2265145 0.7817446 0.5810048 
-0.5279287 -0.6714562 0.7717183 -0.4396892 -0.4789558 0.759786 
-0.5197037 -0.6802474 0.5367178 0.9342781 0.3520052 -0.05671616 
-0.375398 -0.6890386 0.7064812 0.9573159 0.02983466 -0.2875 
-0.5821617 -0.6978298 0.6799752 0.5715426 0.7820188 -0.2485671 
-0.4251029 -0.706621 0.5701892 0.1371177 -0.912703 0.3849311 
-0.4634587 -0.7154122 0.7374225 -0.05440062 -0.8935592 0.4456372 
-0.5345145 -0.7242034 0.6088004 0.6185187 0.7836127 0.05818773 
-0.426962 -0.7329946 0.6482988 0.7943093 0.6051021 0.05407588 
-0.4780481 -0.7417858 0.6525311 0.2630449 0.9121808 -0.3142191 
-0.1442 -0.5056822 -0.9059405 0.4631925 0.127366 0.8770579 
-0.02855784 -0.5320559 -0.9226142 0.2377445 -0.7394488 -0.6298358 
-0.2138375 -0.5496383 -0.8699469 -0.6033585 -0.1949055 -0.7732854 
0.0577322 -0.5584295 -0.828639 0.1957575 0.871942 0.4487718 
-0.107041 -0.576012 -0.9477217 0.09806877 -0.2348833 0.9670638 
-0.241125 -0.5935944 -0.7903621 -0.4560762 -0.621443 -0.6370267 
0.02153321 -0.6023856 -0.9051918 -0.4860431 -0.6350649 -0.6003788 
-0.1850326 -0.619968 -0.9136251 0.6423401 0.1800861 0.7449619 
0.0619187 -0.6287592 -0.7766156 0.7158252 0.01556692 0.698106 
-0.05541758 -0.6463416 -0.9392054 -0.1873026 0.36059 0.9137246 
-0.2198984 -0.663924 -0.8389634 -0.5801574 -0.06825072 0.8116398 
0.03460647 -0.6727152 -0.8531199 -0.6312209 0.5315951 0.5647715 
-0.1291286 -0.6902977 -0.9125294 -0.3166305 -0.6302541 -0.7088899 
0.01517716 -0.6990889 -0.742766 -0.2682531 0.6157382 0.7408825 
-0.1915865 -0.7078801 -0.7692721 -0.4551635 0.1165118 0.882752 
-0.03452777 -0.7166713 -0.879058 -0.2507187 0.7959298 0.5510316 
-0.07288358 -0.7254625 -0.7118247 0.8022373 -0.5901887 -0.08995872 
-0.1439393 -0.7342537 -0.8404468 0.05707621 0.9446522 0.3230704 
-0.03638686 -0.7430449 -0.8009484 0.1710407 -0.9535286 -0.2480489 
-0.08747295 -0.7518361 -0.7967161 0.183766 -0.9793917 0.08379678 
0.6493695 -0.4805677 0.5917355 0.7787167 -0.276466 0.5631757 
0.7183251 -0.5245237 0.5676999 0.7246968 0.5115513 0.4616599 
0.6397109 -0.5508974 0.659671 0.2435167 -0.7153274 0.6549858 
0.7421663 -0.5684798 0.491455 -0.1829236 -0.6788893 0.7110894 
0.5102674 -0.577271 0.646691 -0.2882529 0.9383811 -0.1906597 
0.7141665 -0.5948534 0.6221588 0.747663 0.1108817 0.6547559 
0.7059673 -0.6124358 0.4149023 0.9808394 0.03937428 -0.1907979 
0.5898809 -0.621227 0.6764944 0.743192 -0.5806159 0.3324919 
0.7463528 -0.6388094 0.5434784 0.9494801 -0.26598 0.1665598 
0.4749218 -0.6476007 0.6082898 0.9777438 0.0133896 0.2093748 
0.6679786 -0.6651831 0.6473129 0.4198735 -0.3019638 0.8558762 
0.7190406 -0.6827655 0.4669742 0.1929385 0.07861527 0.9780564 
0.5470806 -0.6915567 0.6425651 -0.2515597 -0.28143 0.926021 
0.6996112 -0.7091391 0.577328 -0.6791263 0.6796656 -0.2772042 
0.4928476 -0.7179303 0.550822 -0.6904374 0.5179101 -0.5050399 
0.6499063 -0.7267215 0.4410361 0.5485873 0.1994984 0.8119436 
0.6115505 -0.7355127 0.6082693 0.1836693 -0.8249451 0.5345383 
0.5404947 -0.7443039 0.4796472 0.5321824 0.5899056 -0.6072835 
0.6480472 -0.7530951 0.5191456 0.1895619 -0.9405809 0.2817337 
0.5969611 -0.7618864 0.523378 0.09963354 -0.9945593 -0.03041064 
-0.8823182 -0.4994091 9.716826e-05 0.8448531 0.4702821 -0.2550647 
-0.9102256 -0.5433652 0.06846023 0.05100279 0.8956395 0.4418468 
-0.9122845 -0.5697388 -0.05608217 0.3960294 0.5632696 -0.7251814 
-0.8726137 -0.5873212 0.1404616 -0.7257388 -0.1669429 0.6674079 
-0.805488 -0.5961124 -0.133857 0.4348181 0.8994037 -0.04479171 
-0.9395719 -0.6136948 0.02350266 0.9984302 -0.05519703 -0.009511036 
-0.7930002 -0.6312773 0.170265 -0.5881938 -0.2252738 0.7767109 
-0.8834795 -0.6400685 -0.09976038 0.8602283 0.5086148 0.03630665 
-0.9079592 -0.6576509 0.1020605 0.7999021 0.3147628 -0.5109608 
-0.7538645 -0.6664421 -0.1253407 0.7973756 0.02263895 -0.6030586 
-0.9183454 -0.6840245 -0.02509866 0.8567332 0.3737693 0.3553938 
-0.8358005 -0.7016069 0.1363358 0.8441766 -0.08422357 0.5294075 
-0.8275756 -0.7103981 -0.09866469 0.4391983 0.3956786 0.8065627 
-0.8900335 -0.7279806 0.04459266 0.5715426 0.7820188 -0.2485671 
-0.7329747 -0.7367718 -0.06519325 0.9339811 0.2898189 -0.2090083 
-0.7713305 -0.745563 0.10204 0.8321465 0.229273 0.5049417 
-0.8423863 -0.7543542 -0.02658209 0.3572688 0.896585 0.261714 
-0.7348338 -0.7631454 0.01291629 0.6419982 -0.5755687 0.5065165 
-0.7859199 -0.7719366 0.01714867 0.3627092 0.8199649 -0.4428313 
0.6529913 -0.5182506 -0.5957793 0.4482807 -0.8614469 0.2386496 
0.6835082 -0.5446242 -0.493668 0.8904438 0.4174116 0.1813214 
0.6210594 -0.5622066 -0.663888 -0.3137285 0.916334 -0.24881 
0.7073494 -0.5885803 -0.5699128 0.8118404 0.01382079 0.5837159 
0.5425761 -0.6061627 -0.6889955 -0.1514042 0.4285953 0.8907204 
0.6793496 -0.6149539 -0.439209 -0.3652237 0.8747486 0.3184752 
0.6711504 -0.6325363 -0.6464655 0.7395757 -0.001832251 -0.6730709 
0.4645846 -0.6501187 -0.6548989 -0.2030382 -0.8748364 -0.4398144 
0.7115359 -0.6589099 -0.5178894 -0.7319908 0.486953 0.4765147 
0.5941996 -0.6764923 -0.6804792 -0.2402697 0.3617428 0.9007844 
0.6331617 -0.6852835 -0.414055 0.02011224 0.2069424 -0.9781464 
0.4297188 -0.6940747 -0.5802372 -0.09656684 0.8998252 0.4254285 
0.6842237 -0.702866 -0.5943937 0.7817493 -0.5679102 -0.2575772 
0.5204886 -0.7204484 -0.6538032 0.1299993 0.6381034 0.7588967 
0.6647944 -0.7292396 -0.4840398 0.8093026 -0.5396134 0.2320487 
0.4580307 -0.7380308 -0.5105458 0.6336972 0.7407791 0.222877 
0.6150894 -0.746822 -0.6203318 -0.2507187 0.7959298 0.5510316 
0.5767336 -0.7556132 -0.4530985 0.7575122 -0.5260272 -0.3866144 
0.5056779 -0.7644044 -0.5817206 0.8456577 -0.1212976 -0.5197595 
0.6132303 -0.7731956 -0.5422223 0.367125 -0.9285517 0.0548722 
0.5621443 -0.7819868 -0.5379899 -0.1690029 -0.9842952 -0.05099856 
-0.08066556 -0.537092 0.8802043 -0.1992209 -0.3608997 0.9110776 
-0.1748665 -0.5634657 0.8195276 0.7560171 -0.4757857 -0.4495176 
-0.007811022 -0.5810481 0.9045091 0.1168708 0.2874838 0.9506283 
-0.1372546 -0.6074217 0.891529 0.8835126 -0.4660986 0.0464496 
0.06664457 -0.6250041 0.8669969 -0.2802481 -0.6366878 0.7183938 
-0.2042128 -0.6337953 0.77457 -0.7029014 0.4870588 -0.518366 
-0.05764102 -0.6513778 0.9213324 -0.1035564 -0.06046293 0.9927841 
0.09883086 -0.6689602 0.7883165 0.02233209 0.8567025 0.5153272 
-0.1726001 -0.6777514 0.8531278 0.2611206 -0.8572602 0.4437579 
0.02045663 -0.6953338 0.8921509 0.4156848 -0.319534 0.8515305 
-0.1829863 -0.704125 0.7259687 0.5020757 0.1505711 0.8516151 
0.07151862 -0.7129163 0.7118123 0.03084905 -0.7523971 0.6579871 
-0.1004414 -0.7217075 0.8874031 -0.4546016 -0.4553448 0.7655054 
0.05208931 -0.7392899 0.8221661 -0.5105458 0.7043585 -0.4931755 
-0.1546743 -0.7480811 0.7956601 0.8459137 0.5246509 -0.09576748 
0.002384379 -0.7568723 0.6858742 0.647492 -0.7381226 -0.1895498 
-0.03597143 -0.7656635 0.8531075 0.1836693 -0.8249451 0.5345383 
-0.1070272 -0.7744547 0.7244853 -0.4399476 -0.897752 -0.02207916 
0.0005252932 -0.7832459 0.7639837 0.6649255 0.4510814 0.5953147 
-0.0505608 -0.7920371 0.7682161 0.1398961 -0.9741754 0.1772325 
-0.5330855 -0.5559335 -0.7032496 -0.4607889 -0.3541657 -0.8137814 
-0.4174434 -0.5823072 -0.7199234 -0.3496 -0.5357604 0.7685966 
-0.6027231 -0.5998896 -0.667256 0.7158706 -0.168437 0.6776122 
-0.4959266 -0.6262632 -0.7450308 0.8065022 0.5635122 0.1789084 
-0.6300105 -0.6438456 -0.5876712 0.8843318 0.1793478 0.4310357 
-0.3673523 -0.6526368 -0.7025009 0.7581463 0.6509503 -0.03844392 
-0.5739181 -0.6702192 -0.7109342 0.5799031 0.1208708 0.8056691 
-0.5983979 -0.6878017 -0.5091134 -0.2644621 -0.8359436 0.480893 
-0.4443031 -0.6965929 -0.7365145 0.3988633 0.321533 0.8587925 
-0.608784 -0.7141753 -0.6362725 0.850392 0.3930492 0.3497796 
-0.3542791 -0.7229665 -0.650429 0.7908588 -0.0935621 0.6048045 
-0.5262391 -0.7317577 -0.4748381 -0.4732934 -0.6162409 -0.6294763 
-0.5180142 -0.7405489 -0.7098386 -0.3166305 -0.6302541 -0.7088899 
-0.5804721 -0.7581313 -0.5665812 0.7582023 0.6508524 0.03899138 
-0.4234133 -0.7669225 -0.6763671 -0.06708471 0.7935601 0.6047826 
-0.4617691 -0.7757137 -0.5091338 -0.2707623 -0.6704655 0.6907704 
-0.5328249 -0.784505 -0.6377559 -0.4589904 -0.8788703 -0.1300569 
-0.4252724 -0.7932962 -0.5982575 -0.320223 0.8949261 0.3107481 
-0.4763585 -0.8020874 -0.5940252 0.4267097 0.8860859 -0.1810269 
0.834787 -0.5484014 0.05712685 -0.64245 -0.7210802 0.259425 
0.8653039 -0.574775 0.1592382 0.869006 0.180574 0.4606752 
0.7866897 -0.6011486 0.2512093 0.2980807 0.5239792 0.7978682 
0.8891451 -0.618731 0.08299334 0.9352563 0.3446719 0.08060385 
0.8611453 -0.6451046 0.2136971 -0.5698917 0.4902387 0.6594615 
0.8529461 -0.6626871 0.006440605 -0.5809376 0.3808461 0.7193523 
0.7368597 -0.6714783 0.2680326 -0.6858684 0.4217797 0.5930315 
0.8933316 -0.6890607 0.1350167 0.959326 -0.1832021 0.2147806 
0.7759953 -0.7066431 -0.02757304 0.6602498 -0.2750214 0.6988801 
0.8149574 -0.7154343 0.2388512 0.8706126 -0.3186001 0.3748702 
0.8660194 -0.7330167 0.05851251 0.7817493 -0.5679102 -0.2575772 
0.6940593 -0.7418079 0.2341034 0.9871998 -0.1100165 0.1154682 
0.7022843 -0.7505991 -0.0008970684 0.852232 -0.4818059 0.2038717 
0.84659 -0.7593904 0.1688663 -0.6791263 0.6796656 -0.2772042 
0.6398264 -0.7681816 0.1423603 -0.51732 0.7380129 -0.433263 
0.7968851 -0.7769728 0.03257437 0.594319 -0.6893736 -0.4141848 
0.7585293 -0.785764 0.1998077 0.180046 -0.9323242 0.3136161 
0.6874735 -0.7945552 0.07118554 -0.1911672 0.7935366 0.5777151 
0.795026 -0.8033464 0.1106839 -0.2695458 0.9624462 0.0322859 
0.7439399 -0.8121376 0.1149163 -0.3671013 0.9227877 0.1170451 
-0.648877 -0.5672428 0.5248322 0.05692955 0.8841355 0.4637493 
-0.7430779 -0.5936164 0.4641556 0.8847207 0.07147419 -0.4606091 
-0.5760225 -0.6111988 0.5491371 0.4846911 0.5043452 0.7146401 
-0.7451369 -0.6199901 0.3396132 -0.2970318 0.8193649 -0.4903195 
-0.705466 -0.6375725 0.536157 0.7854806 -0.2952037 -0.5439439 
-0.7724243 -0.6639461 0.4191981 -0.001349803 -0.4994875 0.86632 
-0.6258525 -0.6815285 0.5659604 -0.3494948 0.3840488 -0.854611 
-0.7163319 -0.6903197 0.295935 0.9549473 -0.07209907 0.2878843 
-0.7408116 -0.7079021 0.4977559 0.8480923 0.2476492 -0.4684114 
-0.5477548 -0.7254845 0.536779 0.961676 0.2714764 -0.03846832 
-0.7511978 -0.7342758 0.3705967 0.9143233 0.4040532 0.02745705 
-0.6686528 -0.7518582 0.5320312 -0.4396892 -0.4789558 0.759786 
-0.6604279 -0.7606494 0.2970307 0.8550633 0.2032057 -0.4770474 
-0.5161222 -0.7694406 0.4667941 0.9765441 -0.03073852 -0.2131119 
-0.7228858 -0.7782318 0.4402881 0.5715426 0.7820188 -0.2485671 
-0.5658271 -0.787023 0.3305022 -0.5747673 -0.8145045 -0.07889891 
-0.6041829 -0.7958142 0.4977354 -0.09086812 -0.8064684 0.5842531 
-0.6752387 -0.8046054 0.3691133 0.2344452 0.9704613 0.05692394 
-0.5676862 -0.8133966 0.4086117 0.7360569 -0.6752889 -0.04695846 
-0.6187723 -0.8221878 0.4128441 -0.3374856 -0.8656332 0.3698414 
0.1184812 -0.5860842 -0.8227274 -0.2562006 0.9152628 -0.3108943 
0.2341233 -0.6124579 -0.8394011 -0.1859464 0.08475137 0.9788979 
0.04884363 -0.6300403 -0.7867338 0.9622709 -0.08177342 0.2595145 
0.3204134 -0.6388315 -0.7454259 -0.4827659 -0.8750072 0.03605003 
0.1556401 -0.6564139 -0.8645086 -0.259259 -0.2522022 0.9322976 
0.2842143 -0.6827875 -0.8219786 -0.5406896 -0.5141008 -0.6658492 
0.07764856 -0.70037 -0.830412 0.8789816 0.3526617 0.320969 
0.3245998 -0.7091612 -0.6934025 0.05971197 0.669795 0.7401413 
0.2072636 -0.7267436 -0.8559923 0.2639285 -0.2500629 -0.9315634 
0.04278274 -0.7443261 -0.7557502 -0.5960352 0.2765624 0.7538271 
0.2972876 -0.7531173 -0.7699067 0.6381357 -0.5277177 -0.5606219 
0.1335525 -0.7706997 -0.8293163 -0.3166305 -0.6302541 -0.7088899 
0.2778583 -0.7794909 -0.6595529 -0.3412942 0.2729659 0.8994487 
0.07109465 -0.7882821 -0.6860589 0.479622 0.09825011 -0.8719574 
0.2281534 -0.7970733 -0.7958449 -0.2507187 0.7959298 0.5510316 
0.1897976 -0.8058645 -0.6286116 0.09636382 0.8374853 0.5378963 
0.1187418 -0.8146557 -0.7572337 -0.1026949 0.9520466 0.2882032 
0.2262943 -0.8234469 -0.7177353 0.4253137 -0.9032246 0.05738903 
0.1752082 -0.8322381 -0.7135029 0.2471783 -0.9266049 -0.2833837 
0.3181487 -0.5873433 0.7482011 0.3293381 -0.9299529 0.163475 
0.4696174 -0.6049258 0.6805348 0.06751894 0.9585444 -0.2768282 
0.3910033 -0.6312994 0.7725059 0.4534963 -0.4176385 -0.7873495 
0.4934586 -0.6488818 0.6042899 -0.5872256 -0.5134939 0.6256917 
0.2615597 -0.657673 0.7595258 0.8398052 -0.5410424 -0.04472428 
0.4654588 -0.6752554 0.7349937 -0.5017759 -0.3259594 -0.8012312 
0.3411732 -0.701629 0.7893292 0.8099527 -0.5401172 0.2285825 
0.4976451 -0.7192115 0.6563134 0.8216062 -0.4075747 -0.398555 
0.2262141 -0.7280027 0.7211247 0.5725211 -0.6160554 0.5410133 
0.4192709 -0.7455851 0.7601478 0.4156848 -0.319534 0.8515305 
0.4703329 -0.7631675 0.5798091 -0.360431 0.797846 -0.4832508 
0.2983729 -0.7719587 0.7554 -0.2591309 -0.5553456 0.7902167 
0.4509036 -0.7895411 0.6901629 -0.6791263 0.6796656 -0.2772042 
0.2441399 -0.7983323 0.6636569 0.756642 -0.2986611 0.5816308 
0.4011986 -0.8071235 0.553871 -0.4689758 0.08814138 -0.8788019 
0.3628428 -0.8159148 0.7211043 0.1836693 -0.8249451 0.5345383 
0.2917871 -0.824706 0.5924821 -0.09804041 -0.9923713 -0.074749 
0.3993396 -0.8334972 0.6319805 0.6397764 -0.7388496 -0.2116303 
0.3482535 -0.8422884 0.6362129 0.07300151 -0.9970917 -0.02188429 
-0.7341169 -0.6061848 -0.3399867 0.4058385 -0.08407985 0.910069 
-0.8016955 -0.6237672 -0.1794507 0.2352279 0.9445323 0.2291866 
-0.8037544 -0.6501408 -0.3039931 -0.5876223 0.2621291 -0.7654988 
-0.7640836 -0.6677232 -0.1074493 0.1710698 -0.5002407 -0.8488194 
-0.6969579 -0.6765144 -0.3817679 0.8058739 0.5743231 -0.1439448 
-0.8310419 -0.6940969 -0.2244083 0.9545317 -0.1652647 0.2481062 
-0.7749495 -0.7204705 -0.3476713 -0.4823621 -0.4711291 0.7384877 
-0.7994292 -0.7380529 -0.1458505 -0.2554106 -0.4604698 0.850137 
-0.6453345 -0.7468441 -0.3732516 0.7999736 0.595537 -0.07333427 
-0.8098153 -0.7644265 -0.2730096 0.850392 0.3930492 0.3497796 
-0.7272705 -0.7820089 -0.1115752 -0.6109754 -0.7894455 -0.05903348 
-0.7190455 -0.7908002 -0.3465756 0.4268312 0.3605374 0.8293539 
-0.5747398 -0.7995914 -0.1768123 0.178777 -0.625102 0.7597936 
-0.7815034 -0.8083826 -0.2033183 0.5715426 0.7820188 -0.2485671 
-0.6244447 -0.8171738 -0.3131042 0.9256931 0.3707158 0.07524693 
-0.6628005 -0.825965 -0.1458709 0.9385448 0.2125159 0.2719754 
-0.7338563 -0.8347562 -0.274493 0.3572688 0.896585 0.261714 
-0.6263038 -0.8435474 -0.2349947 0.4190827 -0.9006702 -0.1147295 
-0.6773899 -0.8523386 -0.2307623 -0.06430526 0.9943316 0.08467323 
0.7370992 -0.5986526 -0.3412068 -0.6880873 -0.003991672 0.7256169 
0.7676161 -0.6250262 -0.2390954 0.8717855 -0.4386043 0.2182117 
0.7051672 -0.6426086 -0.4093155 0.3422239 -0.9071065 0.245032 
0.7914573 -0.6689823 -0.3153403 0.9949302 0.09581532 -0.03054998 
0.6266841 -0.6865647 -0.434423 0.1107526 -0.1728354 0.9787042 
0.7634575 -0.6953559 -0.1846365 0.5399894 -0.6091473 -0.5808192 
0.7552583 -0.7129383 -0.391893 0.7434111 -0.1549362 -0.6506418 
0.7956438 -0.7393119 -0.2633169 -0.02153898 -0.4971283 -0.8674096 
0.6783075 -0.7568944 -0.4259067 -0.4711984 -0.5044463 -0.7235372 
0.7172696 -0.7656856 -0.1594824 0.6734937 -0.05884859 0.7368467 
0.7683316 -0.783268 -0.3398211 0.7817493 -0.5679102 -0.2575772 
0.5963716 -0.7920592 -0.1642302 0.0929796 0.02888792 -0.9952489 
0.6045965 -0.8008504 -0.3992307 0.4752608 -0.7855926 -0.3961963 
0.7489023 -0.8096416 -0.2294673 0.6546721 -0.6998718 0.2856289 
0.5421386 -0.8184328 -0.2559733 0.8929534 0.05317772 0.446997 
0.6991974 -0.827224 -0.3657593 -0.2507187 0.7959298 0.5510316 
0.6608415 -0.8360152 -0.198526 0.1274644 -0.8926836 0.4322833 
0.5897858 -0.8448064 -0.3271481 0.843004 -0.3087438 -0.4404786 
0.6973382 -0.8535976 -0.2876497 0.3440987 -0.9378442 0.04521505 
0.6462522 -0.8623888 -0.2834173 0.1822942 -0.9826018 -0.03553174 
-0.3110497 -0.617494 0.7481439 -0.07014862 -0.03455008 0.996938 
-0.4052506 -0.6438677 0.6874673 0.8337041 0.3200391 -0.4500138 
-0.2381952 -0.6614501 0.7724487 -0.1798085 -0.9127392 0.3668462 
-0.3676387 -0.6878237 0.7594687 -0.1844205 0.5184285 -0.8349976 
-0.1637396 -0.7054061 0.7349365 -0.556348 -0.1471618 -0.8178144 
-0.434597 -0.7141973 0.6425097 0.8400062 -0.4007711 0.3657487 
-0.2880251 -0.7317798 0.7892721 0.03548032 0.2583399 -0.9654023 
-0.1315533 -0.7493622 0.6562561 0.1347985 -0.6393416 0.757015 
-0.4029843 -0.7581534 0.7210675 -0.6498091 -0.3163345 0.6911444 
-0.2099275 -0.7757358 0.7600906 0.3963726 -0.4296966 0.8113258 
-0.4133704 -0.784527 0.5939084 0.9782705 0.1889896 0.08526244 
-0.3308255 -0.8021094 0.7553428 -0.4396892 -0.4789558 0.759786 
-0.3226006 -0.8109006 0.5203424 0.7362469 0.07294359 0.6727701 
-0.1782948 -0.8196918 0.6901057 0.3352818 -0.6791406 0.6529581 
-0.3850585 -0.828483 0.6635997 0.7532426 0.6201437 -0.2191972 
-0.2279997 -0.8372743 0.5538138 0.7899772 0.09802857 -0.605249 
-0.2663556 -0.8460655 0.7210471 0.1836693 -0.8249451 0.5345383 
-0.3374113 -0.8548567 0.592425 -0.3578083 -0.9113097 -0.2036859 
-0.2298588 -0.8636479 0.6319233 0.6146049 -0.7881772 -0.03221069 
-0.2809449 -0.8724391 0.6361557 -0.2582037 -0.9453499 0.1991089 
-0.2759117 -0.6363356 -0.7580982 0.5562214 0.08964323 0.8261851 
-0.1602696 -0.6627092 -0.7747719 -0.4694634 -0.8407365 0.2697521 
-0.3455493 -0.6802916 -0.7221046 0.9375024 0.3125365 0.153004 
-0.2387528 -0.7066652 -0.7998794 -0.08435489 -0.1358475 0.9871321 
-0.3728367 -0.7242476 -0.6425198 0.1764616 -0.1045504 -0.9787393 
-0.1101785 -0.7330388 -0.7573494 -0.4003395 -0.9006161 0.1691712 
-0.3167443 -0.7506213 -0.7657828 0.6103674 0.2249941 0.7594928 
-0.341224 -0.7682037 -0.563962 -0.1349352 -0.9386826 0.3172813 
-0.1871293 -0.7769949 -0.7913631 -0.2243572 -0.4208226 -0.8789608 
-0.3516102 -0.7945773 -0.6911211 0.7677771 0.5281071 0.3627962 
-0.09710527 -0.8033685 -0.7052775 0.80063 -0.3398931 -0.493421 
-0.2690653 -0.8121597 -0.5296866 -0.5124217 -0.5830385 0.6304681 
-0.2608404 -0.8209509 -0.7646871 -0.3166305 -0.6302541 -0.7088899 
-0.1165346 -0.8297421 -0.5949237 0.9528283 -0.2978582 0.05829895 
-0.3232982 -0.8385333 -0.6214297 0.8819907 0.4098765 0.2325803 
-0.1662395 -0.8473246 -0.7312157 -0.2306669 0.7651299 0.6011398 
-0.2045953 -0.8561158 -0.5639824 0.0146311 -0.1996928 0.9797493 
-0.2756511 -0.864907 -0.6926045 0.5040215 0.8468935 0.1695099 
-0.1680986 -0.8736982 -0.6531061 0.2367772 -0.9705825 0.04365954 
-0.2191847 -0.8824894 -0.6488737 -0.2617137 -0.9636263 0.05413213 
0.7117861 -0.655177 0.369489 0.6743366 -0.5806767 0.4561632 
0.633172 -0.6815506 0.4614601 -0.1963681 0.8655209 0.4607745 
0.7356274 -0.699133 0.2932441 0.7214537 -0.420698 -0.5500162 
0.7076275 -0.7255067 0.4239478 0.6709084 0.02198839 0.7412142 
0.6994283 -0.7430891 0.2166913 -0.3920233 -0.485974 0.7811191 
0.583342 -0.7518803 0.4782834 0.004193352 0.9332603 0.3591763 
0.7398139 -0.7694627 0.3452675 0.9006463 -0.3792338 0.2121746 
0.6224775 -0.7870451 0.1826777 -0.6774598 0.6465519 -0.3507405 
0.6614396 -0.7958363 0.4491019 0.6173802 -0.3428227 0.7080355 
0.7125016 -0.8134187 0.2687632 0.7772757 -0.6039742 -0.1762319 
0.5405416 -0.82221 0.4443541 0.2963618 0.4400399 -0.8476642 
0.5487665 -0.8310012 0.2093537 -0.5377616 -0.4098249 -0.7367876 
0.6930723 -0.8397924 0.3791171 -0.6791263 0.6796656 -0.2772042 
0.4863086 -0.8485836 0.352611 0.9480404 0.08207815 0.3073802 
0.6433674 -0.8573748 0.2428251 0.7754512 -0.5328621 -0.3387233 
0.6050116 -0.866166 0.4100584 0.1917725 -0.8615707 0.4700206 
0.5339558 -0.8749572 0.2814363 0.1471777 0.322665 0.9350005 
0.6415083 -0.8837484 0.3209347 -0.3328244 0.9415308 0.05241867 
0.5904222 -0.8925396 0.325167 -0.3410844 0.9392939 0.03726096 
-0.7684457 -0.6740184 0.2077293 0.3896191 -0.3570848 0.8489331 
-0.7705045 -0.7003921 0.08318692 -0.7787411 -0.6223217 -0.07923397 
-0.7308338 -0.7179745 0.2797307 0.481091 0.6996748 0.5282108 
-0.797792 -0.7443481 0.1627718 0.9966089 0.07119668 0.04125291 
-0.6512202 -0.7619305 0.3095341 0.1041961 -0.9526342 0.2857119 
-0.7416996 -0.7707217 0.03950872 0.392019 -0.7243404 0.5671437 
-0.7661793 -0.7883042 0.2413296 0.7868672 0.4288951 -0.4437217 
-0.6120846 -0.7970954 0.01392843 -0.3595285 0.3647319 0.8589004 
-0.5731226 -0.8058866 0.2803527 0.6883994 0.6936761 -0.211943 
-0.7765654 -0.8146778 0.1141704 0.8352283 0.4482274 0.3185685 
-0.6940206 -0.8322602 0.2756048 -0.4822743 -0.657194 0.5792301 
-0.6857957 -0.8410514 0.0406044 0.2835768 0.4387792 0.8526763 
-0.5414899 -0.8498426 0.2103678 0.8556747 -0.49235 0.1594121 
-0.7482535 -0.8586338 0.1838618 0.5715426 0.7820188 -0.2485671 
-0.5911948 -0.867425 0.07407584 0.7365119 -0.6572934 0.159736 
-0.6295506 -0.8762162 0.2413091 0.1085136 -0.8694531 0.4819503 
-0.7006064 -0.8850074 0.112687 -0.5184931 -0.8266575 -0.2186371 
-0.5930539 -0.8937986 0.1521854 0.8078684 -0.5309482 -0.2558174 
-0.64414 -0.9025899 0.1564178 0.3854285 0.8403773 -0.3810655 
0.4218019 -0.6928599 -0.6667723 -0.6138691 -0.4824725 -0.624808 
0.508092 -0.7192335 -0.5727971 0.5985485 0.7040039 0.3822542 
0.3433187 -0.7368159 -0.6918797 -0.2966025 -0.204174 -0.9329201 
0.471893 -0.7631896 -0.6493499 0.5508373 -0.2920924 -0.7818314 
0.2653272 -0.780772 -0.6577832 -0.2006166 -0.9747877 -0.09768296 
0.5122785 -0.7895632 -0.5207737 -0.553461 -0.7869543 -0.272734 
0.3949422 -0.8071456 -0.6833635 0.2639285 -0.2500629 -0.9315634 
0.4339043 -0.8159368 -0.4169393 0.2422174 -0.3537133 0.9034476 
0.2304614 -0.824728 -0.5831215 0.06712814 -0.8739356 -0.4813837 
0.4849662 -0.8335192 -0.5972779 0.7377526 -0.4606033 -0.4935237 
0.3212312 -0.8511016 -0.6566875 0.2292881 0.5901792 0.7740255 
0.465537 -0.8598928 -0.4869241 -0.7262727 0.5586157 -0.400595 
0.2587733 -0.8686841 -0.5134302 0.6753597 0.6921118 -0.2546969 
0.415832 -0.8774753 -0.6232161 -0.2507187 0.7959298 0.5510316 
0.3774762 -0.8862665 -0.4559828 0.2034363 0.3576156 0.911441 
0.3064204 -0.8950577 -0.5846049 -0.4769716 -0.8120381 -0.3362919 
0.4139729 -0.9038489 -0.5451065 0.2930669 -0.9560466 -0.009306105 
0.3628868 -0.9126401 -0.5408742 -0.02863176 0.9987872 0.04005442 
0.06588349 -0.6677453 0.7441787 0.1435874 -0.8991286 0.4134615 
0.138738 -0.7117014 0.7684835 0.8079684 -0.585215 -0.06863206 
0.009294488 -0.738075 0.7555035 -0.5459411 0.8320034 0.0985837 
0.2131936 -0.7556574 0.7309713 0.7872282 -0.3201955 0.5270167 
0.08890802 -0.7820311 0.7853069 0.1140631 -0.3348347 0.9353477 
0.2453799 -0.7996135 0.6522909 -0.7278206 0.5257038 -0.4403552 
-0.02605108 -0.8084047 0.7171023 -0.6646817 0.7393473 0.1075351 
0.1670057 -0.8259871 0.7561254 0.4156848 -0.319534 0.8515305 
-0.03643721 -0.8347783 0.5899432 0.7207839 0.3378974 0.6052238 
0.2180677 -0.8435695 0.5757867 0.2567506 -0.8867402 0.3844098 
0.04610767 -0.8523607 0.7513776 -0.3751097 -0.5986394 0.7077596 
0.05433258 -0.8611519 0.5163772 0.9045129 -0.4229708 -0.05433318 
0.1986384 -0.8699431 0.6861405 0.6543167 -0.6588188 0.3712513 
-0.008125293 -0.8787344 0.6596345 0.9498075 0.2172692 0.2250775 
0.1489334 -0.8875256 0.5498486 0.3278035 -0.7334038 -0.5955365 
0.1105776 -0.8963168 0.7170818 0.1836693 -0.8249451 0.5345383 
0.03952185 -0.905108 0.5884597 0.9338692 -0.1360072 -0.3307422 
0.1470743 -0.9138992 0.6279581 0.4081619 -0.9080877 0.09370439 
0.09598825 -0.9226904 0.6321905 -0.03746546 0.9992475 0.01004095 
-0.5449831 -0.6865868 -0.5028351 -0.1084109 -0.8558944 0.5056599 
-0.6146207 -0.7305428 -0.4668415 0.3472669 0.205525 0.9149673 
-0.5078242 -0.7569165 -0.5446163 -0.459956 -0.796968 0.3915129 
-0.6419082 -0.7744989 -0.3872567 0.8333165 0.3914318 0.3903393 
-0.37925 -0.7832901 -0.5020863 0.05433823 -0.7730397 -0.6320261 
-0.5858157 -0.8008725 -0.5105197 -0.6724121 -0.3027557 -0.6754265 
-0.6102955 -0.8184549 -0.3086989 0.7457572 0.6662158 -0.001649861 
-0.4562007 -0.8272461 -0.5361 0.4264291 0.8957358 -0.1257601 
-0.6206816 -0.8448285 -0.435858 0.850392 0.3930492 0.3497796 
-0.3661767 -0.8536198 -0.4500145 0.9610391 -0.2747874 -0.02992891 
-0.5381367 -0.862411 -0.2744236 -0.5687233 -0.8124946 0.1280876 
-0.5299118 -0.8712022 -0.509424 0.1048001 0.4654549 0.8788451 
-0.385606 -0.8799934 -0.3396606 -0.2425284 -0.9149097 0.3226767 
-0.5923697 -0.8887846 -0.3661667 -0.6267111 -0.7396132 0.245368 
-0.4353109 -0.8975758 -0.4759526 -0.7188697 0.4688248 0.513254 
-0.4736668 -0.906367 -0.3087193 0.06807254 -0.8528337 0.5177265 
-0.5447225 -0.9151582 -0.4373414 0.3572688 0.896585 0.261714 
-0.43717 -0.9239494 -0.397843 -0.06493554 0.7705129 0.6341082 
-0.4882561 -0.9327406 -0.3936107 0.07409023 -0.9933571 -0.08804674 
0.7346035 -0.7054282 0.005546742 0.9458864 -0.1244625 0.2996798 
0.6721546 -0.7230107 -0.1646733 -0.04115276 0.4010696 0.9151227 
0.7584447 -0.7493843 -0.07069812 0.6665668 -0.06215192 0.7428498 
0.7304449 -0.7757579 0.06000564 0.003168458 0.8991584 0.437612 
0.7222457 -0.7933403 -0.1472509 0.9404013 0.3348006 -0.05961473 
0.6061593 -0.8021315 0.1143412 -0.6271964 0.6980505 -0.345471 
0.7626312 -0.819714 -0.01867474 0.9742461 -0.2017934 -0.1006172 
0.6452949 -0.8372964 -0.1812645 -0.1627764 0.3539362 0.9209957 
0.684257 -0.8460876 0.08515972 0.3689263 -0.5552016 0.7454156 
0.735319 -0.86367 -0.09517896 0.7817493 -0.5679102 -0.2575772 
0.563359 -0.8724612 0.08041193 0.8450477 0.1921324 -0.4989784 
0.5715839 -0.8812524 -0.1545885 0.3078763 -0.811164 -0.4972174 
0.7158896 -0.8900436 0.01517485 0.6484193 -0.5672812 0.5076854 
0.5091259 -0.8988348 -0.01133118 -0.2122637 0.8778632 -0.4293021 
0.6661847 -0.907626 -0.1211171 -0.2507187 0.7959298 0.5510316 
0.6278289 -0.9164172 0.0461162 0.1640593 -0.892253 0.4206771 
0.5567731 -0.9252084 -0.08250593 -0.3462091 -0.8906285 -0.2948221 
0.6643256 -0.9339997 -0.04300755 -0.5050246 0.8628918 -0.01918147 
0.6132395 -0.9427909 -0.03877517 0.217023 0.8778995 -0.4268413 
-0.5411969 -0.7242697 0.4846806 0.8868307 0.1721946 -0.4288127 
-0.3741415 -0.7418521 0.569662 0.8999614 -0.04813257 0.4333045 
-0.503585 -0.7682257 0.556682 0.9952606 -0.04560814 0.08588482 
-0.5705433 -0.7945994 0.439723 0.1920178 -0.7866998 0.5867133 
-0.4239715 -0.8121818 0.5864854 0.8451809 -0.4151112 -0.3366778 
-0.5144509 -0.820973 0.31646 -0.6717598 -0.7324914 0.1104312 
-0.5389306 -0.8385554 0.5182808 0.6459307 0.2792082 -0.7105043 
-0.3458738 -0.8561378 0.5573039 0.2793344 -0.6090154 0.7423426 
-0.5493167 -0.864929 0.3911217 0.7283037 0.6212274 0.2892234 
-0.4667718 -0.8825114 0.5525561 0.3721938 0.5019707 -0.780703 
-0.4585469 -0.8913026 0.3175557 -0.7120774 -0.07160967 0.6984396 
-0.3142411 -0.9000939 0.4873191 0.1392639 -0.812789 0.5656675 
-0.5210048 -0.9088851 0.460813 0.5715426 0.7820188 -0.2485671 
-0.3639461 -0.9176763 0.3510271 0.4803785 0.850505 0.2141907 
-0.4023019 -0.9264675 0.5182604 0.1836693 -0.8249451 0.5345383 
-0.4733576 -0.9352587 0.3896383 0.3602057 0.9209136 0.1488961 
-0.3658051 -0.9440499 0.4291366 -0.1978575 0.9765111 -0.08531351 
-0.4168912 -0.9528411 0.433369 -0.03619881 -0.9856956 -0.1646021 
-0.04239243 -0.7167375 -0.696796 0.1564111 0.7224422 0.6735079 
0.07324969 -0.7431111 -0.7134697 -0.3482421 0.2183667 0.9116158 
-0.11203 -0.7606936 -0.6608024 0.867209 -0.2693632 0.4187983 
0.1595397 -0.7694848 -0.6194945 -0.5301313 0.6670457 0.5234605 
-0.005233508 -0.7870672 -0.7385772 0.9069877 0.419581 0.0364017 
-0.1393174 -0.8046497 -0.5812176 0.7330285 0.1476208 0.6639859 
0.1233407 -0.8134409 -0.6960472 0.6320513 0.6335716 0.4462042 
-0.08322505 -0.8310233 -0.7044806 0.3273499 0.3069676 -0.8936515 
0.1637262 -0.8398145 -0.5674711 -0.2902099 0.6166981 0.7317525 
0.04638996 -0.8573969 -0.7300609 -0.008285586 0.349213 0.9370067 
-0.1180909 -0.8749793 -0.6298189 0.8932175 0.3454592 -0.2877855 
0.136414 -0.8837705 -0.6439754 0.7388205 -0.6508039 -0.1749245 
-0.035546 -0.8925617 -0.4683845 -0.1620373 -0.07832667 0.9836711 
-0.02732108 -0.9013529 -0.7033849 -0.3166305 -0.6302541 -0.7088899 
0.1169847 -0.9101442 -0.5336215 -0.3073506 0.2627477 0.9146034 
-0.08977896 -0.9189354 -0.5601276 0.6157143 0.7532012 0.2314816 
0.06727976 -0.9277266 -0.6699135 -0.2507187 0.7959298 0.5510316 
0.02892395 -0.9365178 -0.5026802 0.3427252 0.4831679 0.8056601 
-0.04213182 -0.945309 -0.6313023 0.3572688 0.896585 0.261714 
0.06542068 -0.9541002 -0.591804 -0.2817201 0.948806 0.1428315 
0.01433458 -0.9628914 -0.5875716 0.2093504 -0.9773641 0.03052437 
0.498432 -0.735579 0.4766438 -0.6019955 0.7148314 -0.3558334 
0.4198179 -0.7619526 0.568615 0.3683676 -0.2666307 0.8906253 
0.5222732 -0.7795351 0.400399 0.9020478 0.1935374 -0.3858147 
0.2903743 -0.7883263 0.5556349 0.02162961 -0.8684104 0.4953741 
0.4942735 -0.8059087 0.5311027 0.8781545 -0.1994305 0.4348243 
0.4860743 -0.8234911 0.3238462 0.9480404 0.08207815 0.3073802 
0.3699879 -0.8322823 0.5854383 -0.1927978 0.8197225 0.5393366 
0.5264598 -0.8498647 0.4524224 0.5126259 0.1252442 0.8494284 
0.2550288 -0.8586559 0.5172337 0.1913493 -0.7245087 0.6621726 
0.4091235 -0.8674471 0.2898326 0.1572761 -0.2901663 0.9439639 
0.4480855 -0.8762383 0.5562568 -0.3894438 0.3380978 -0.8567516 
0.4991475 -0.8938208 0.3759181 0.8382436 -0.4503977 -0.3073914 
0.3271875 -0.902612 0.551509 -0.3425376 -0.6095032 0.7149642 
0.3354124 -0.9114032 0.3165086 -0.6213915 0.7822524 0.04420012 
0.4797182 -0.9201944 0.4862719 -0.6791263 0.6796656 -0.2772042 
0.2729546 -0.9289856 0.4597659 0.8064278 -0.2922899 0.5140436 
0.4300133 -0.9377768 0.34998 -0.5753341 0.7897956 0.2126347 
0.3916575 -0.946568 0.5172133 0.1836693 -0.8249451 0.5345383 
0.3206017 -0.9553592 0.3885912 0.2054397 0.9752754 0.08143979 
0.4281542 -0.9641504 0.4280895 -0.5050246 0.8628918 -0.01918147 
0.3770681 -0.9729416 0.4323219 -0.09112272 -0.9949 -0.04325098 
-0.67984 -0.7544205 -0.01112979 0.3470838 0.9291582 -0.1272714 
-0.681899 -0.7807941 -0.1356722 0.8661451 0.3230327 0.3813694 
-0.6422281 -0.7983765 0.06087159 -0.3595285 0.3647319 0.8589004 
-0.5751024 -0.8071677 -0.213447 0.06330507 -0.8107356 0.5819796 
-0.7091864 -0.8247501 -0.05608737 0.9741843 0.1869983 -0.1264778 
-0.5626146 -0.8423325 0.09067499 0.7365119 -0.6572934 0.159736 
-0.653094 -0.8511238 -0.1793504 0.8128187 0.5742115 -0.09801475 
-0.6775737 -0.8687062 0.02247043 0.9845545 0.06564379 0.1623066 
-0.523479 -0.8774974 -0.2049307 0.5426104 0.4760958 0.6920309 
-0.4845169 -0.8862886 0.06149353 0.7280012 0.5406768 0.4215244 
-0.6879598 -0.8950798 -0.1046887 0.8279281 0.4354808 0.3533999 
-0.433455 -0.903871 -0.1188451 -0.2310858 0.5777552 0.7828143 
-0.6054149 -0.9126622 0.05674573 -0.3839319 -0.5228273 0.7610834 
-0.59719 -0.9214534 -0.1782547 -0.185594 -0.6698903 -0.7188894 
-0.4528843 -0.9302446 -0.008491336 -0.3722428 -0.7820729 0.4997973 
-0.6596479 -0.9390358 -0.03499736 0.5715426 0.7820188 -0.2485671 
-0.5025892 -0.947827 -0.1447833 0.9312665 -0.1536596 -0.3303504 
-0.540945 -0.9566182 0.02245001 -0.1263752 0.8785027 -0.4607194 
-0.6120008 -0.9654095 -0.1061721 0.3572688 0.896585 0.261714 
-0.5044483 -0.9742007 -0.06667374 0.05047218 -0.9987254 -0.0003013578 
-0.5555344 -0.9829919 -0.06244136 -0.1273901 0.9902958 0.05555109 
0.4984399 -0.7732619 -0.4461606 0.002058284 0.7639435 0.6452798 
0.58473 -0.7996355 -0.3521854 0.9633173 -0.2619616 0.05827402 
0.4199567 -0.8172179 -0.4712681 0.2422174 -0.3537133 0.9034476 
0.5567302 -0.8260092 -0.2214816 0.8688471 -0.4944827 0.02432313 
0.548531 -0.8435916 -0.4287381 -0.6350157 0.1167136 0.7636315 
0.3419652 -0.861174 -0.4371715 -0.5188166 -0.6084002 -0.6005653 
0.5889165 -0.8699652 -0.300162 -0.3727954 -0.3849082 -0.8443158 
0.4715802 -0.8875476 -0.4627518 -0.3974178 0.09743392 -0.9124504 
0.5105423 -0.8963388 -0.1963275 0.7888421 -0.585796 0.1859331 
0.3070994 -0.90513 -0.3625098 -0.6491857 0.7396131 0.1775683 
0.5616043 -0.9139212 -0.3766662 0.7920798 -0.5410287 -0.2826614 
0.3896443 -0.9227124 -0.2010753 -0.07524937 -0.4023854 0.9123725 
0.3978692 -0.9315037 -0.4360758 0.2255899 0.6056201 0.7631078 
0.5421749 -0.9402949 -0.2663124 0.6301955 -0.6675303 0.3965563 
0.3354113 -0.9490861 -0.2928184 -0.1306348 0.95495 0.2664675 
0.49247 -0.9578773 -0.4026043 -0.2507187 0.7959298 0.5510316 
0.4541142 -0.9666685 -0.2353711 -0.329418 0.2870602 0.8994889 
0.3830584 -0.9754597 -0.3639932 -0.4540176 -0.8540236 -0.2539914 
0.4906109 -0.9842509 -0.3244948 0.2877326 -0.9519727 0.1046798 
0.4395248 -0.9930421 -0.3202624 -0.03858022 0.9992517 0.002760918 
-0.06187092 -0.7921034 0.6538212 -0.2698132 -0.9075605 0.3217682 
-0.1913145 -0.818477 0.6408411 -0.4329312 -0.05410386 0.8998019 
0.01258468 -0.8360594 0.6163089 0.7207839 0.3378974 0.6052238 
-0.2582727 -0.8448506 0.5238821 -0.002578504 -0.6228611 0.7823282 
-0.1117009 -0.862433 0.6706445 0.05128718 -0.1801259 0.9823056 
0.04477096 -0.8800154 0.5376285 0.8609138 -0.4857236 0.1513274 
-0.22666 -0.8888066 0.6024399 0.07777696 0.5208833 0.8500773 
-0.03360326 -0.9063891 0.641463 0.8819786 0.02738957 0.4704928 
-0.2370462 -0.9151803 0.4752808 -0.6656139 -0.6853688 0.2953434 
0.01745873 -0.9239715 0.4611243 -0.2643471 -0.5254613 0.8087094 
-0.1545013 -0.9327627 0.6367152 -0.3702845 -0.5945039 0.7137608 
-0.1462764 -0.941554 0.4017147 -0.1304608 -0.9408869 -0.3125888 
-0.00197058 -0.9503452 0.5714781 0.617457 -0.7015347 0.3558031 
-0.2087342 -0.9591364 0.5449721 0.6498444 0.7280701 -0.2182114 
-0.05167552 -0.9679276 0.4351862 -0.2833146 0.95707 -0.06123626 
-0.09003133 -0.9767188 0.6024195 0.1836693 -0.8249451 0.5345383 
-0.1610871 -0.98551 0.4737974 0.478873 0.8373085 0.2638089 
-0.0535346 -0.9943012 0.5132957 -0.3345294 0.9423767 0.004039332 
-0.1046207 -1.003092 0.5175281 0.08578056 -0.9956124 -0.03738368 
-0.390282 -0.8109449 -0.51136 0.05433823 -0.7730397 -0.6320261 
-0.2834855 -0.8373185 -0.5891348 -0.5124217 -0.5830385 0.6304681 
-0.4175695 -0.8549009 -0.4317752 0.9380334 -0.2966426 0.1791548 
-0.1549113 -0.8636921 -0.5466048 -0.3008553 -0.5361957 -0.7886572 
-0.3614771 -0.8812745 -0.5550382 0.696482 0.2428125 0.6752443 
-0.3859568 -0.8988569 -0.3532174 -0.5710066 -0.3274723 0.7528037 
-0.2318621 -0.9076481 -0.5806185 -0.04886327 -0.5560899 -0.8296845 
-0.3963429 -0.9252306 -0.4803765 0.6059271 0.3704581 0.703998 
-0.141838 -0.9340218 -0.4945329 -0.3235629 0.7655933 0.5560341 
-0.313798 -0.942813 -0.318942 -0.04530858 -0.05882352 0.9972396 
-0.3055731 -0.9516042 -0.5539425 -0.3166305 -0.6302541 -0.7088899 
-0.1612673 -0.9603954 -0.3841791 -0.5954571 0.6917179 -0.4086038 
-0.368031 -0.9691866 -0.4106852 -0.5904402 -0.7944024 0.1424966 
-0.2109722 -0.9779778 -0.520471 -0.3316428 0.7550691 0.5655826 
-0.2493281 -0.986769 -0.3532378 0.09281221 -0.8007905 0.5917097 
-0.3203838 -0.9955602 -0.4818599 0.3572688 0.896585 0.261714 
-0.2128313 -1.004351 -0.4423615 -0.5149084 0.8438975 0.1506859 
-0.2639174 -1.013143 -0.4381291 0.03704943 -0.9967316 -0.07178687 
0.5953519 -0.7858303 0.1842208 -0.5618993 0.7957505 0.2259431 
0.5167377 -0.8122039 0.2761919 0.8532643 -0.241013 0.4624421 
0.6191931 -0.8297863 0.1079759 0.2831852 -0.5516888 0.7845035 
0.5911933 -0.8561599 0.2386797 -0.005907549 0.5902474 0.8072008 
0.5829941 -0.8737423 0.03142318 -0.6053271 -0.2148173 0.7664415 
0.4669077 -0.8825336 0.2930152 0.2079268 0.02233848 0.9778893 
0.6233796 -0.900116 0.1599993 0.9524261 -0.3042686 0.01747086 
0.3519486 -0.9089072 0.2248107 0.8711197 0.4900678 -0.03136821 
0.5060433 -0.9176984 -0.002590463 0.7145504 -0.4888656 0.500428 
0.5450054 -0.9264896 0.2638338 -0.1414574 0.729369 -0.669336 
0.3415625 -0.9352808 0.09765154 0.9680837 -0.1272976 -0.2158919 
0.5960674 -0.944072 0.08349508 0.8252203 -0.4409009 -0.3530126 
0.4241073 -0.9528632 0.259086 -0.2059624 -0.6088122 0.7661117 
0.4323323 -0.9616544 0.02408551 0.340949 0.5742161 0.7443317 
0.576638 -0.9704456 0.1938489 -0.6791263 0.6796656 -0.2772042 
0.3698744 -0.9792368 0.1673429 0.9439736 0.2351542 -0.231552 
0.5269331 -0.988028 0.05755695 0.3394256 -0.7363782 -0.585267 
0.4885773 -0.9968193 0.2247902 0.07875071 -0.8702074 0.4863512 
0.4175215 -1.00561 0.09616812 -0.3495746 -0.8542171 -0.3848516 
0.525074 -1.014402 0.1356665 -0.5050246 0.8628918 -0.01918147 
0.4739879 -1.023193 0.1398989 -0.131281 0.9904719 0.04160253 
-0.5520363 -0.8046717 0.2603747 0.2778335 0.8087483 -0.5183963 
-0.5540953 -0.8310453 0.1358323 0.9909503 -0.000785492 -0.1342266 
-0.5144245 -0.8486277 0.3323761 0.4297179 -0.04509469 0.9018365 
-0.5813828 -0.8750014 0.2154171 -0.3541411 0.6342586 -0.6872409 
-0.4348109 -0.8925838 0.3621795 0.08750631 -0.06121004 0.9942816 
-0.5252904 -0.901375 0.09215406 0.04656933 0.6457077 -0.7621633 
-0.5497701 -0.9189574 0.2939749 0.7189118 0.2342272 -0.654449 
-0.3956753 -0.9277486 0.06657377 0.6254738 -0.6678146 -0.4034925 
-0.3567133 -0.9365398 0.332998 0.8225397 0.5547571 -0.1251916 
-0.5601562 -0.945331 0.1668158 -0.5389109 -0.7580833 -0.3672666 
-0.3056513 -0.9541222 0.1526593 -0.4921965 -0.1642149 0.8548544 
-0.4776113 -0.9629135 0.3282502 -0.4227638 -0.5715048 0.7033157 
-0.4693864 -0.9717047 0.09324974 -0.3671437 -0.6484419 -0.6668798 
-0.3250806 -0.9804959 0.2630131 -0.6501947 0.6410037 -0.4078739 
-0.5318443 -0.9892871 0.2365071 0.5715426 0.7820188 -0.2485671 
-0.3747855 -0.9980783 0.1267212 0.4949551 -0.2603588 -0.828995 
-0.4131413 -1.00687 0.2939545 0.09351508 -0.8749268 0.47514 
-0.4841971 -1.015661 0.1653323 -0.4246067 -0.8370811 -0.34497 
-0.3766446 -1.024452 0.2048307 -0.2227541 0.9599147 -0.1701304 
-0.4277307 -1.033243 0.2090631 -0.09264071 0.9923841 0.08118753 
0.2261205 -0.8235132 -0.5512521 -0.1472871 -0.8399732 -0.5222563 
0.3124105 -0.8498868 -0.4572769 0.4259411 -0.7922417 -0.4369523 
0.1476373 -0.8674692 -0.5763596 0.8726723 0.1454141 0.4661522 
0.2762115 -0.8938428 -0.5338296 0.4854164 0.6084457 0.6278254 
0.06964573 -0.9114252 -0.542263 -0.09558654 -0.8117054 0.5761923 
0.316597 -0.9202164 -0.4052535 -0.5188166 -0.6084002 -0.6005653 
0.1992607 -0.9377989 -0.5678433 -0.1136779 0.3081537 0.9445204 
0.2382228 -0.9465901 -0.301419 -0.3097926 0.892243 -0.3285286 
0.03477991 -0.9553813 -0.4676013 0.3661299 -0.80757 -0.4623631 
0.2892848 -0.9641725 -0.4817577 -0.6680183 0.654068 0.3548896 
0.1173248 -0.9729637 -0.3061669 0.343985 0.1976952 0.9179275 
0.1255497 -0.9817549 -0.5411673 -0.03648981 -0.6604717 -0.7499638 
0.2698555 -0.9905462 -0.3714039 0.6846675 -0.6973354 0.2120231 
0.06309182 -0.9993374 -0.3979099 0.7948328 0.602749 -0.07024542 
0.2201505 -1.008129 -0.5076959 -0.2507187 0.7959298 0.5510316 
0.1817947 -1.01692 -0.3404626 0.9059033 0.04158568 0.4214377 
0.110739 -1.025711 -0.4690847 -0.4677474 -0.8189554 -0.3324521 
0.2182915 -1.034502 -0.4295863 0.4092533 -0.9102747 0.06254282 
0.1672054 -1.043293 -0.4253539 -0.09358227 0.9956075 0.002832122 
0.1995621 -0.8423547 0.5441094 0.4019686 -0.4635485 0.7896481 
0.07011851 -0.8687283 0.5311293 0.230867 -0.9492221 0.2137235 
0.2740176 -0.8863107 0.5065972 -0.07378512 -0.4428852 0.893537 
0.1497321 -0.9126843 0.5609327 0.7871733 -0.5730751 0.2279105 
0.3062039 -0.9302667 0.4279168 -0.09054066 0.9911211 -0.0973729 
0.03477294 -0.9390579 0.4927281 0.8400502 -0.5370674 0.076645 
0.1888676 -0.9478492 0.265327 0.1438301 -0.9477489 0.2847542 
0.2278297 -0.9566404 0.5317513 0.5122559 -0.3830229 0.768692 
0.02438682 -0.9654316 0.365569 -0.4731894 -0.8809384 0.00626778 
0.2788917 -0.9742228 0.3514126 0.3512814 -0.6521353 0.6718042 
0.1069317 -0.983014 0.5270035 -0.3756855 -0.4764901 0.7948695 
0.1151566 -0.9918052 0.292003 0.8990868 -0.2247338 0.375683 
0.2594624 -1.000596 0.4617664 0.674812 -0.6302627 0.3839242 
0.05269873 -1.009388 0.4352604 0.6143634 0.7167825 -0.3298189 
0.2097574 -1.018179 0.3254744 0.6484177 -0.5672613 -0.5077096 
0.1714016 -1.02697 0.4927077 0.1836693 -0.8249451 0.5345383 
0.1003459 -1.035761 0.3640856 0.3197164 0.8755078 0.3623085 
0.2078984 -1.044552 0.403584 0.4136275 -0.9092287 0.04706907 
0.1568123 -1.053344 0.4078164 0.07203842 -0.9969639 -0.02955491 
-0.4983791 -0.8611961 -0.2585092 0.808725 0.5292072 0.2567169 
-0.3915827 -0.8875697 -0.336284 -0.2425284 -0.9149097 0.3226767 
-0.5256666 -0.9051521 -0.1789244 0.5753506 0.4451312 0.6861704 
-0.4695742 -0.9315258 -0.3021874 0.8901013 0.4327209 0.1430818 
-0.4940539 -0.9491082 -0.1003666 -0.08143504 0.7440408 0.6631528 
-0.3399592 -0.9578994 -0.3277677 0.9571257 0.04081098 0.2867838 
-0.3009971 -0.9666906 -0.06134348 0.2292875 -0.377372 0.8972277 
-0.50444 -0.9754818 -0.2275257 0.9115342 0.347574 0.2197675 
-0.2499352 -0.984273 -0.2416822 0.2386562 -0.7190646 -0.6526786 
-0.4218951 -0.9930642 -0.06609127 -0.4438984 -0.8777947 0.1800852 
-0.4136702 -1.001855 -0.3010917 0.2473612 0.5674682 0.7853612 
-0.2693644 -1.010647 -0.1313283 0.5138825 -0.3734937 0.772287 
