ply
format ascii 1.0
element vertex 837
property float x
property float y
property float z
property float nx
property float ny
property float nz
end_header
0.372998 -0.422976 0.037092 0.900360 0.435145 0.000000
0.412541 -0.840776 0.029322 0.893642 -0.448781 -0.000000
0.300699 -0.017263 -0.161770 0.018853 0.004626 -0.999812
-0.333427 -0.889341 0.131088 -0.644316 -0.741681 0.186458
-0.064519 0.247936 0.150201 -0.983538 0.155530 0.091994
0.065580 -0.867840 -0.164726 0.000000 0.000000 -1.000000
0.007722 -0.059374 0.162828 -0.000000 0.000000 1.000000
0.292415 -0.560890 -0.181592 0.000000 -0.000000 -1.000000
0.040990 0.860648 0.135824 0.008590 0.000392 0.999963
0.079250 -0.017363 0.171063 0.999666 -0.000000 -0.025856
-0.060491 -0.285958 -0.162828 -0.000000 0.000000 -1.000000
-0.031874 0.220188 -0.144983 -0.179483 0.082136 -0.980326
0.371311 -0.421624 -0.117239 0.900216 0.435076 -0.017878
-0.202683 -0.686225 0.173628 -0.000000 0.000000 1.000000
0.079294 -0.615040 -0.162828 0.000000 0.000000 -1.000000
0.340136 -0.956528 0.029981 0.658680 -0.752423 -0.000012
0.137672 -0.014941 0.150224 0.000000 0.000000 1.000000
-0.300461 -0.217366 0.066764 -0.998907 -0.046740 -0.000000
0.304123 -0.212828 -0.127728 0.970017 -0.242336 -0.018425
-0.118921 -0.747370 0.167382 0.000000 0.000000 1.000000
-0.355489 -0.688687 0.149996 -0.014922 -0.001957 0.999887
-0.421556 -0.539252 0.148662 -0.120332 0.063755 0.990684
0.453256 -0.614280 -0.096130 0.985210 0.170124 -0.020461
-0.034126 -0.885481 0.123029 0.000000 -0.000000 1.000000
0.421231 -0.822602 0.029518 0.893642 -0.448781 -0.000000
-0.022658 0.289338 -0.023896 0.000000 0.983842 -0.179039
0.015049 0.734003 0.086787 -0.000003 -0.022971 -0.999736
-0.092168 0.275692 0.023238 -0.974412 0.170190 -0.146825
0.155116 -0.440596 -0.162828 -0.000000 0.000000 -1.000000
-0.082639 0.736404 0.142412 -0.982056 -0.041707 0.183918
0.133739 -0.418278 -0.162828 0.000000 0.000000 -1.000000
-0.052941 0.548410 0.134372 -0.998436 0.023640 0.050654
-0.298857 -0.226260 -0.157948 -0.170185 -0.008487 -0.985376
0.166801 0.017354 0.153041 0.000000 0.000000 1.000000
-0.216609 -0.229771 0.150224 0.000000 -0.000000 1.000000
-0.434332 -0.632119 -0.046846 -0.985417 0.170159 -0.000000
-0.117306 -0.196110 0.134216 0.967521 -0.252792 0.000000
-0.407252 -0.480764 -0.033555 -0.883143 0.469104 -0.000000
0.071196 0.723475 0.092514 0.149296 -0.374999 -0.914924
0.351065 -0.783425 -0.154878 0.016224 -0.007514 -0.999840
0.080976 0.743287 0.110483 0.991142 -0.032411 -0.128791
-0.327660 0.034162 -0.106833 -0.977454 0.210443 -0.017234
-0.367617 -0.890111 -0.018218 -0.658670 -0.752432 0.000000
-0.115364 -0.671594 0.151078 0.000000 0.000000 1.000000
-0.274289 -0.543354 0.150224 -0.000000 -0.000000 1.000000
0.247537 -0.903628 -0.145403 0.000000 0.000000 -1.000000
0.330573 0.030551 0.085874 0.977282 0.210406 0.025466
-0.282754 -0.262129 -0.089321 -0.998727 -0.046732 -0.018971
0.213527 -0.316534 0.150224 -0.000000 0.000000 1.000000
0.431530 -0.532116 -0.015755 0.883143 0.469104 0.000000
-0.066395 -0.529229 0.150224 0.000000 -0.000000 1.000000
-0.327812 -0.637396 -0.188624 -0.000000 -0.000000 -1.000000
-0.058063 0.538535 0.132150 -0.998941 0.023534 -0.039529
0.139514 -0.138025 -0.196146 0.000000 0.000000 -1.000000
-0.096028 0.186278 -0.146881 -0.124471 0.981932 -0.142539
-0.188606 -0.317021 -0.169330 -0.000000 0.000000 -1.000000
0.020529 -0.954140 0.149206 0.000025 -0.017181 0.999852
0.113248 0.184857 -0.062642 0.131419 0.990925 -0.028239
0.065729 0.243406 0.142344 0.985840 0.162783 0.040256
-0.117275 -0.734203 0.153090 -0.000000 0.000000 1.000000
-0.112207 0.189468 -0.012115 -0.131376 0.991169 -0.018002
-0.332602 -0.250376 0.012502 -0.998907 -0.046740 -0.000000
0.033600 -0.540858 0.150224 -0.000000 0.000000 1.000000
0.061040 0.554460 0.169363 0.995758 0.024391 0.088722
-0.419464 -0.511277 -0.022814 -0.883143 0.469104 0.000000
0.025193 -1.020905 -0.040872 -0.000000 -1.000000 0.000000
-0.116995 -0.927487 0.149632 -0.001268 -0.017389 0.999848
-0.017501 0.816253 0.164890 -0.008942 0.000305 0.999960
-0.054256 0.261364 0.028091 -0.985743 0.085137 -0.145131
0.223443 -1.006951 -0.110620 0.236788 -0.971396 -0.017917
-0.044996 -0.543434 -0.162828 -0.000000 -0.000000 -1.000000
-0.082657 -0.130696 0.113452 -0.000000 0.000000 1.000000
0.021306 0.271156 0.162826 0.000086 0.000000 1.000000
-0.040845 0.209807 0.120692 -0.996313 -0.003724 0.085711
-0.373554 -0.655926 -0.162318 -0.014658 0.002325 -0.999890
0.389498 -0.736696 0.120539 0.015489 -0.001535 0.999879
0.313006 -0.182003 0.068487 0.970224 -0.242209 0.000000
-0.032831 -0.774237 0.149757 -0.000000 0.000000 1.000000
0.086698 0.864244 0.136707 -0.226897 -0.081878 0.970471
-0.053876 -0.142819 -0.162179 -0.000000 -0.000000 -1.000000
-0.397921 -0.863583 0.068880 -0.658670 -0.752432 0.000000
0.039743 0.231714 -0.048433 0.922265 0.321824 -0.214141
-0.307632 -0.202953 -0.072792 -0.970062 -0.242168 -0.018310
0.075690 -0.236020 -0.148041 0.000000 0.000000 -1.000000
-0.052777 -0.996762 -0.145353 -0.001027 -0.988871 -0.148769
0.351007 -0.701569 -0.180950 0.000000 0.000000 -1.000000
-0.037751 0.259415 0.000209 -0.391183 0.910789 -0.132057
-0.088137 -0.887321 -0.188699 -0.000015 -0.017193 -0.999852
0.360573 -0.881854 0.146826 0.156698 -0.180377 0.971036
-0.102278 -0.193554 0.149849 0.000000 0.000000 1.000000
-0.226408 -0.132979 0.150224 0.000000 -0.000000 1.000000
-0.000589 0.778432 0.155441 0.000000 0.000000 1.000000
-0.226557 -0.388102 0.150224 0.000000 0.000000 1.000000
0.417686 -0.492347 -0.024583 0.883143 0.469104 0.000000
-0.131146 -0.995912 -0.052092 -0.081207 -0.996697 -0.000000
-0.090303 -0.256523 -0.153839 0.000000 0.000000 -1.000000
-0.021414 0.670526 0.161250 -0.000165 0.413801 0.910367
0.302216 -0.810493 0.177915 0.000000 0.000000 1.000000
-0.168160 0.181831 -0.001703 -0.139277 0.990194 -0.010841
0.177147 0.184724 -0.024906 0.337582 0.940912 -0.026888
-0.325941 -0.325610 -0.028405 -0.900360 0.435145 0.000000
-0.110723 -0.842351 -0.146388 0.000000 0.000000 -1.000000
0.338759 -0.075721 0.045885 0.998455 -0.055572 -0.000000
-0.152557 -0.985070 0.000908 -0.081207 -0.996697 -0.000000
0.054381 -0.430671 -0.162828 0.000000 0.000000 -1.000000
-0.341504 -0.094437 0.046014 -0.998455 -0.055572 0.000000
0.339381 -0.062967 0.084717 0.998111 -0.055552 0.026253
0.063199 -0.874113 -0.151329 0.000000 0.000000 -1.000000
0.035517 0.223674 -0.134093 0.910314 0.361941 -0.200818
0.179795 -1.006729 0.026685 0.236775 -0.971565 0.000000
0.206831 -0.121233 -0.162828 0.000000 0.000000 -1.000000
-0.044451 0.323468 0.070563 -0.505726 0.297379 -0.809819
-0.007623 0.358218 0.162027 -0.000088 0.014235 0.999899
0.044335 -0.002058 0.157987 0.999666 0.000000 -0.025856
-0.039711 0.985224 0.124658 -0.642870 0.765948 0.006510
-0.125282 -0.252303 0.139406 0.972933 0.231088 0.000000
-0.388806 -0.556756 0.149265 -0.015332 0.007578 0.999854
0.369958 -0.900614 0.035107 0.658680 -0.752423 -0.000012
0.204883 -0.982638 -0.082531 0.236737 -0.971410 -0.017852
0.031223 0.158303 0.159781 0.000117 0.000000 1.000000
0.461690 -0.676461 -0.083190 0.989432 -0.143590 -0.020145
-0.044021 -0.728483 -0.164699 0.000000 0.000000 -1.000000
-0.378799 -0.434850 0.083710 -0.882971 0.468713 0.025888
-0.279424 -0.479768 -0.132530 -0.000000 -0.000000 -1.000000
-0.004750 -0.779995 0.150224 -0.000000 0.000000 1.000000
0.023808 -0.983794 -0.040709 -0.000000 -1.000000 -0.000000
0.076441 0.204501 0.067368 0.933276 0.346138 -0.095839
-0.202849 0.159654 -0.165427 -0.319862 0.935937 -0.147344
-0.233219 -0.288900 0.150115 -0.022992 0.006556 0.999714
0.050550 0.104079 -0.188624 -0.000000 0.000000 -1.000000
-0.204086 -0.802837 -0.162828 0.000000 -0.000000 -1.000000
-0.329315 0.000253 -0.046645 -0.977599 0.210474 0.000000
0.066860 -0.042588 0.160876 0.999666 -0.000000 -0.025856
-0.276637 -0.215598 0.147100 -0.170184 -0.008487 0.985376
0.300614 0.102498 0.017743 0.800570 0.599153 -0.010141
-0.044942 -0.689538 0.159686 -0.000000 0.000000 1.000000
0.059600 0.236303 0.023577 0.952451 0.291353 -0.089165
-0.403099 -0.530367 -0.164087 -0.015332 0.007577 -0.999854
-0.298473 -0.064395 -0.161819 -0.020543 -0.000844 -0.999789
0.272549 -0.241174 0.142603 0.933713 0.357002 0.027027
0.238213 -0.974835 0.050264 0.236775 -0.971565 0.000000
-0.308195 -0.796984 0.165390 0.000000 0.000000 1.000000
0.229281 -0.814144 0.150224 0.000000 0.000000 1.000000
-0.415346 -0.640737 0.147888 -0.014659 0.002325 0.999890
0.274592 -0.956047 0.099372 0.478632 -0.877661 0.024955
0.193490 0.201125 0.017539 0.143767 0.989586 -0.007056
0.458420 -0.695744 -0.106371 0.989432 -0.143590 -0.020145
0.231772 -0.194399 0.149795 0.021947 -0.005576 0.999744
-0.135032 0.187348 0.079960 -0.143767 0.989586 -0.007056
-0.325109 -0.071523 0.143252 -0.156014 -0.007541 0.987726
0.332102 -0.338513 -0.068969 0.900216 0.435076 -0.017878
0.081336 -0.711677 -0.164193 0.000000 0.000000 -1.000000
-0.005640 0.759006 0.086212 0.000000 -0.022972 -0.999736
0.276022 -0.149065 0.154152 0.021947 -0.005165 0.999746
-0.017969 -0.999153 -0.109981 -0.000000 -0.999822 -0.018887
-0.174481 0.076987 0.147184 -0.002396 0.018323 0.999829
-0.211778 -0.770484 -0.162828 -0.000000 0.000000 -1.000000
-0.332907 -0.424589 -0.123702 -0.900175 0.435155 -0.018039
0.087839 -0.021495 -0.162828 -0.000000 -0.000000 -1.000000
-0.213836 -0.314480 -0.133575 -0.000000 -0.000000 -1.000000
-0.301862 -0.261322 -0.119480 -0.998679 -0.047517 -0.019581
0.412155 -0.564376 0.050512 0.985417 0.170159 -0.000000
0.070076 0.222045 0.143928 0.912455 0.401068 0.081059
-0.313979 -0.931518 -0.167871 -0.475454 -0.869440 -0.134231
0.065751 -0.085601 0.162828 0.000000 0.000000 1.000000
-0.224628 -0.948954 0.149966 -0.004233 -0.019287 0.999805
-0.278407 -0.231487 0.148834 -0.170737 -0.008278 0.985282
-0.072009 -0.475567 0.181409 -0.000000 0.000000 1.000000
-0.301533 -0.921113 0.147796 -0.093087 -0.151792 0.984019
-0.002827 0.421985 0.193227 -0.000091 0.000000 1.000000
0.442989 -0.779276 0.064864 0.893642 -0.448781 0.000000
-0.007274 -0.276110 0.117829 0.000000 -0.000000 1.000000
-0.071887 -0.301411 0.144114 0.758991 0.651102 0.000000
0.404666 -0.807605 0.020136 0.893642 -0.448781 -0.000000
0.455626 -0.667697 -0.158074 0.115728 0.019873 -0.993082
-0.149321 -0.961448 -0.036160 -0.081207 -0.996697 -0.000000
0.070091 0.023287 -0.162828 -0.000000 0.000000 -1.000000
0.107963 -0.737176 0.181086 -0.000000 0.000000 1.000000
0.085593 0.892193 0.136323 0.192512 -0.000925 0.981294
0.083530 -0.336758 0.149616 0.000000 0.000000 1.000000
0.035016 0.939463 0.085727 -0.010637 -0.000179 -0.999943
0.132508 -0.074409 0.139946 0.000000 -0.000000 1.000000
0.349094 -0.570399 0.149914 0.015424 0.001893 0.999879
0.357834 -0.430715 0.121154 0.140504 0.067971 0.987744
-0.295963 -0.797189 0.150224 0.000000 -0.000000 1.000000
0.010381 0.029601 0.169389 0.000000 -0.000000 1.000000
-0.454589 -0.620862 -0.086665 -0.985210 0.170124 -0.020461
-0.313905 -0.604462 -0.172486 -0.000000 -0.000000 -1.000000
-0.148787 -0.742344 0.160606 0.000000 0.000000 1.000000
0.307836 -0.311268 -0.075575 0.933899 0.357536 0.000000
0.404519 -0.855879 0.067065 0.893642 -0.448781 -0.000000
0.058478 0.368543 0.063382 0.962427 0.047457 -0.267363
0.009440 0.409577 0.161754 0.000091 0.000000 1.000000
-0.088860 0.141864 0.136545 -0.998229 -0.001720 -0.059460
-0.399131 -0.548008 -0.161644 -0.015332 0.007577 -0.999854
0.454206 -0.661591 -0.030827 0.985417 0.170159 0.000000
-0.142947 -0.686208 -0.162828 -0.000000 0.000000 -1.000000
0.146269 -0.352548 -0.137161 0.000000 -0.000000 -1.000000
-0.398980 -0.668738 -0.161975 -0.014658 0.002325 -0.999890
0.284718 -0.930513 -0.162067 0.475454 -0.869440 -0.134231
-0.358094 -0.771991 -0.162430 -0.015488 -0.001535 -0.999879
-0.172795 -1.021480 -0.009515 -0.236775 -0.971565 -0.000000
0.050160 0.375174 0.062964 0.431366 0.282165 -0.856917
0.271486 -0.248040 0.130255 0.998453 -0.047506 0.028901
-0.382340 -0.441388 0.071403 -0.883143 0.469104 -0.000000
-0.066864 -0.448391 -0.196161 -0.000000 -0.000000 -1.000000
-0.061850 0.072477 -0.162828 0.000000 0.000000 -1.000000
-0.158716 0.193619 -0.153435 -0.020118 0.145995 -0.989081
0.015320 -0.785933 -0.162828 0.000000 0.000000 -1.000000
0.323523 -0.165301 -0.020139 0.946457 -0.322830 0.000000
-0.362538 -0.894557 -0.020557 -0.658670 -0.752432 0.000000
0.071421 0.218380 0.107073 0.908969 0.416277 -0.022097
0.236475 -0.142963 -0.162828 0.000000 0.000000 -1.000000
0.338885 -0.113586 -0.097380 0.998207 -0.056676 -0.019228
-0.401967 -0.530202 -0.160533 -0.120333 0.063755 -0.990684
0.140921 -0.909961 0.158269 0.001268 -0.017389 0.999848
0.363707 -0.691994 -0.162471 0.014922 -0.001957 -0.999887
0.199531 -1.003993 -0.158115 0.234696 -0.962058 -0.139151
-0.329883 -0.126504 0.115632 -0.946250 -0.322360 0.026369
0.025610 -0.274832 -0.157459 0.000000 0.000000 -1.000000
-0.035024 -0.310134 -0.162828 0.000000 0.000000 -1.000000
0.037608 -0.967826 -0.159736 0.000196 -0.134247 -0.990948
-0.245686 -0.971772 -0.093692 -0.478721 -0.877804 -0.016906
0.032101 0.850424 0.169112 -0.951311 -0.032251 0.306542
0.462697 -0.672055 0.052318 0.989633 -0.143620 0.000000
0.350222 -0.078272 -0.043615 0.998297 -0.055563 -0.017769
-0.018377 0.536313 0.161753 -0.000096 0.000000 1.000000
-0.007548 -0.190049 -0.193139 -0.000000 -0.000000 -1.000000
0.021713 0.883299 0.151186 -0.000000 0.000000 1.000000
-0.243799 -0.236491 -0.190469 0.000000 -0.000000 -1.000000
-0.048573 0.142803 -0.162425 -0.013377 0.012088 -0.999837
0.121461 -0.157160 -0.139227 0.000000 0.000000 -1.000000
-0.120067 -0.628868 0.150224 0.000000 0.000000 1.000000
-0.065885 0.872030 0.168616 -0.381029 0.002619 0.924560
0.265300 -0.394707 -0.162804 0.021359 0.007752 -0.999742
-0.039252 0.786209 0.168466 -0.012350 -0.000772 0.999923
0.041420 -0.999175 -0.108653 0.000258 -0.999816 -0.019199
0.072605 -0.423693 -0.147814 0.000000 0.000000 -1.000000
0.092261 -0.318810 -0.162828 0.000000 -0.000000 -1.000000
0.022399 -0.424949 -0.152120 0.000000 0.000000 -1.000000
-0.077673 -0.152205 0.121856 0.000000 -0.000000 1.000000
0.241684 -0.096345 -0.160888 0.000000 0.000000 -1.000000
-0.177332 -0.686808 0.150224 -0.000000 0.000000 1.000000
0.333468 -0.284957 -0.000364 0.933899 0.357536 0.000000
-0.060720 0.229901 0.014620 -0.952451 0.291353 -0.089165
-0.108465 0.165756 0.023282 -0.139278 0.990180 -0.012050
-0.101675 -0.075791 -0.162828 0.000000 0.000000 -1.000000
-0.241443 -0.323046 0.142855 -0.022992 0.006556 0.999714
0.410233 -0.788934 -0.160760 0.127519 -0.064078 -0.989764
0.182215 0.207804 -0.054997 0.337591 0.940938 -0.025842
-0.076540 -0.268464 -0.162828 -0.000000 0.000000 -1.000000
-0.309446 -0.630379 -0.193744 -0.000000 -0.000000 -1.000000
-0.174197 0.076088 -0.162828 -0.000000 0.000000 -1.000000
0.298572 0.096376 0.148324 0.020183 0.032921 0.999254
-0.176785 -0.989805 0.031758 -0.236775 -0.971565 0.000000
0.243933 -0.086238 0.117760 0.020543 -0.000094 0.999789
-0.044969 -0.985066 0.146578 -0.000140 -0.134413 0.990925
-0.115761 -0.010651 -0.147471 0.000000 0.000000 -1.000000
-0.096665 -0.038773 0.150224 0.000000 0.000000 1.000000
-0.093518 0.188825 0.091376 -0.251692 0.967710 0.013714
-0.447071 -0.574741 -0.010710 -0.985417 0.170159 0.000000
0.092621 -0.290266 -0.177333 -0.000000 -0.000000 -1.000000
0.060158 -0.246229 -0.162828 0.000000 0.000000 -1.000000
-0.245062 -0.483030 -0.170012 -0.000000 -0.000000 -1.000000
-0.130543 -0.702526 -0.162828 0.000000 0.000000 -1.000000
0.345990 -0.588906 0.131369 0.015424 0.001893 0.999879
-0.113151 -0.128633 0.150224 -0.000000 0.000000 1.000000
0.372795 -0.693399 0.157019 0.014922 -0.001957 0.999887
0.157330 -0.722221 -0.162828 -0.000000 0.000000 -1.000000
-0.179139 -0.013055 0.140351 -0.000000 0.000000 1.000000
-0.089097 0.907496 0.094888 -0.994285 -0.002860 -0.106721
-0.283527 -0.716924 -0.181753 -0.000000 0.000000 -1.000000
0.288498 -0.771343 -0.162828 0.000000 0.000000 -1.000000
-0.453359 -0.601858 -0.104326 -0.985210 0.170124 -0.020461
0.322349 -0.150032 0.098348 0.946250 -0.322360 0.026368
-0.374032 -0.372643 -0.161319 -0.891618 0.431019 -0.138711
0.314167 -0.177351 0.080623 0.970224 -0.242209 0.000000
0.326664 -0.916020 -0.165248 0.039230 -0.044431 -0.998242
0.339322 -0.063815 0.085186 0.998111 -0.055552 0.026253
-0.335502 -0.054371 0.118791 -0.976972 -0.058759 0.205116
0.053069 0.488006 0.089102 0.951793 0.041710 -0.303892
0.357787 -0.104268 -0.189670 0.145974 -0.008787 -0.989249
0.461063 -0.682312 -0.072277 0.989432 -0.143590 -0.020145
-0.059325 -0.062505 0.179327 0.000000 0.000000 1.000000
-0.271179 -0.727276 -0.162828 0.000000 0.000000 -1.000000
0.431060 -0.889751 -0.133748 0.657881 -0.752921 -0.017408
-0.134264 -0.920040 0.149743 -0.000857 -0.017846 0.999840
-0.360090 -0.413094 -0.011166 -0.900360 0.435145 -0.000000
-0.046343 0.487820 0.075661 -0.397391 0.113909 -0.910552
0.025740 0.347810 0.150856 0.000086 0.014237 0.999899
0.393990 -0.835994 -0.159943 0.144151 -0.066761 -0.987301
-0.200784 -0.975470 -0.062278 -0.236775 -0.971565 0.000000
-0.026062 -0.249992 0.121856 0.000000 -0.000000 1.000000
0.162144 -0.807067 0.155097 0.000000 0.000000 1.000000
0.262506 -0.232214 0.149321 0.022767 -0.001104 0.999740
-0.412445 -0.673783 0.171519 -0.117975 -0.016938 0.992872
-0.358698 -0.559741 0.149745 -0.015424 0.001893 0.999879
0.337799 0.099155 -0.140999 0.977454 0.210443 -0.017234
0.403703 -0.857505 -0.006842 0.893642 -0.448781 -0.000000
-0.139491 -0.478654 -0.138720 0.000000 0.000000 -1.000000
-0.062071 0.315244 0.092232 -0.999284 0.024785 -0.028577
0.259331 -0.960474 -0.094697 0.478712 -0.877809 -0.016906
0.392230 -0.868564 0.061502 0.658675 -0.752428 0.000000
0.317504 -0.176641 -0.065566 0.946457 -0.322830 0.000000
0.448877 -0.591420 0.116842 0.985023 0.169860 0.029636
0.288886 -0.292024 -0.142243 0.170429 0.060654 -0.983501
-0.414779 -0.785271 0.147807 -0.127519 -0.064078 0.989764
-0.406603 -0.461242 -0.104087 -0.883131 0.468798 -0.017539
-0.436076 -0.785511 0.138166 -0.877461 -0.440717 0.189288
0.206123 -0.285469 0.142656 -0.000000 0.000000 1.000000
0.392876 -0.461223 0.025769 0.883143 0.469104 0.000000
-0.357188 -0.101287 -0.073902 -0.998297 -0.055563 -0.017769
0.092107 0.905398 0.136363 0.999132 -0.004826 -0.041375
0.401177 -0.507522 -0.146462 0.874521 0.464227 -0.140380
-0.169515 -0.371647 0.150224 0.000000 0.000000 1.000000
0.043783 0.157470 -0.163940 0.000000 0.000000 -1.000000
0.152512 -0.059485 0.150224 0.000000 0.000000 1.000000
-0.129207 0.212422 0.064266 -0.139278 0.990180 -0.012050
0.126194 -0.535338 0.150224 0.000000 -0.000000 1.000000
-0.042550 0.161901 0.156872 -0.998229 -0.001720 -0.059460
0.200308 0.098907 0.149879 0.002396 0.018323 0.999829
-0.041541 0.283215 0.160844 -0.000086 0.000000 1.000000
0.028405 0.972326 0.085772 -0.010307 -0.001650 -0.999946
0.154369 -0.861594 -0.137124 -0.000000 0.000000 -1.000000
0.136097 0.125951 -0.162196 0.007742 0.013785 -0.999875
-0.284979 0.087293 0.063145 -0.805043 0.593216 0.000000
-0.244483 -0.577731 -0.162828 -0.000000 0.000000 -1.000000
0.070038 0.529590 0.127247 0.943689 0.042027 -0.328153
-0.010493 -0.183705 0.121856 -0.000000 0.000000 1.000000
-0.255879 0.146568 -0.029442 -0.354209 0.935140 -0.007062
-0.055561 0.678746 0.152785 -0.999149 0.008481 0.040377
0.045680 -0.741619 0.160206 0.000000 -0.000000 1.000000
0.015945 -1.000000 -0.061479 -0.000000 -1.000000 -0.000000
0.126490 -0.838395 0.149325 0.000000 0.000000 1.000000
-0.296862 0.102299 -0.138485 -0.775771 0.615846 -0.137526
-0.225947 0.144832 0.154660 -0.058996 0.114024 0.991725
0.285932 -0.288416 -0.161267 0.170429 0.060654 -0.983501
0.165386 -0.057159 -0.183127 0.000000 -0.000000 -1.000000
0.371716 -0.886522 0.033390 0.658675 -0.752428 0.000000
-0.356683 -0.386544 0.046632 -0.900360 0.435145 -0.000000
0.406081 -0.852769 0.002039 0.893642 -0.448781 -0.000000
-0.355574 -0.459822 -0.146820 -0.891618 0.431019 -0.138711
-0.072188 -0.302322 0.150224 -0.000000 0.000000 1.000000
0.130678 0.160656 -0.048182 0.131375 0.991169 -0.018002
-0.172677 -0.119326 -0.162828 0.000000 0.000000 -1.000000
0.060877 -0.987053 -0.106612 0.000258 -0.999816 -0.019199
0.058870 -0.716170 -0.162828 0.000000 0.000000 -1.000000
0.105704 0.805523 0.110295 0.998976 -0.006292 -0.044814
-0.114273 -0.387781 -0.162828 0.000000 0.000000 -1.000000
0.061277 0.272851 -0.016309 0.223438 0.955863 -0.190791
-0.440975 -0.719833 0.146363 -0.117975 -0.016938 0.992872
-0.379989 -0.904094 -0.149331 -0.649794 -0.747986 -0.135221
-0.303402 -0.335621 -0.161364 -0.159788 0.072509 -0.984485
0.201866 0.163113 0.116484 0.359910 0.912445 0.194703
0.274974 -0.772773 -0.162828 0.000000 0.000000 -1.000000
-0.105144 -0.248009 0.125908 0.000000 -0.000000 1.000000
0.036571 -0.559843 -0.162828 0.000000 0.000000 -1.000000
-0.290639 -0.666659 -0.163928 -0.000000 -0.000000 -1.000000
0.322847 0.065765 -0.080000 0.977454 0.210443 -0.017234
-0.454491 -0.618644 -0.079143 -0.985417 0.170159 0.000000
-0.455288 -0.719303 -0.092273 -0.989432 -0.143590 -0.020145
-0.182231 -0.563255 -0.133755 0.000000 0.000000 -1.000000
-0.358019 -0.393260 -0.096263 -0.900216 0.435076 -0.017878
0.000309 -0.950884 0.130257 -0.000025 -0.017181 0.999852
-0.204881 0.138608 0.148914 -0.026891 0.028882 0.999221
-0.029825 -0.992624 0.129756 -0.000253 -0.979477 0.201554
0.042798 -0.314043 0.124311 -0.309131 0.951020 0.000000
0.410145 -0.470368 -0.129662 0.883131 0.468798 -0.017539
-0.409448 -0.492551 -0.068519 -0.882998 0.469027 -0.018099
-0.382970 -0.868232 0.112229 -0.127519 -0.064078 0.989764
0.072425 0.944591 0.084802 0.080890 0.006739 -0.996700
0.055318 0.569385 0.163631 0.998405 0.011214 0.055340
-0.308784 -0.196187 0.105808 -0.969823 -0.242288 0.027196
-0.160156 0.215870 0.108592 -0.145894 0.974106 0.172724
0.290265 -0.594414 -0.162828 0.000000 -0.000000 -1.000000
-0.013368 -0.017075 -0.163383 0.000000 -0.000000 -1.000000
0.445984 -0.572232 0.103044 0.985023 0.169860 0.029636
0.199767 -0.686920 -0.144885 -0.000000 0.000000 -1.000000
0.086477 -0.307076 0.150224 -0.000000 -0.000000 1.000000
0.016222 -0.102191 -0.143641 -0.000000 0.000000 -1.000000
0.200029 0.168093 -0.131933 0.323031 0.945208 -0.047262
0.438869 -0.697937 -0.169568 0.117976 -0.016938 -0.992872
-0.426931 -0.708258 0.148257 -0.122615 -0.016080 0.992324
-0.006517 0.872097 0.183137 -0.000000 0.000000 1.000000
-0.155455 -0.461809 -0.162828 0.000000 0.000000 -1.000000
0.327140 -0.593463 0.152058 0.015424 0.001893 0.999879
-0.331085 0.022901 -0.132503 -0.968916 0.208093 -0.133786
-0.045711 -0.600508 -0.173296 -0.000000 -0.000000 -1.000000
-0.382439 -0.441575 -0.030261 -0.883143 0.469104 -0.000000
-0.303748 -0.184926 -0.145870 -0.960357 -0.239923 -0.141958
0.036887 0.136925 0.162822 0.000234 -0.000074 1.000000
0.100360 -0.748118 -0.188772 0.000000 0.000000 -1.000000
0.254661 -0.219766 -0.162118 0.022767 -0.001104 -0.999740
0.081824 0.227860 -0.118668 0.222242 0.973407 -0.055557
-0.106880 0.188440 -0.089884 -0.125460 0.991475 -0.035164
0.127867 -0.476803 0.147463 0.000000 -0.000000 1.000000
-0.026675 -0.991718 0.145678 -0.000140 -0.134413 0.990925
-0.269003 -0.010711 -0.150719 -0.018853 0.004626 -0.999812
0.395472 -0.710322 -0.161961 0.014922 -0.001957 -0.999887
0.135209 0.198936 -0.007806 0.139278 0.990180 -0.012050
0.310476 -0.834584 -0.162828 0.000000 0.000000 -1.000000
-0.455319 -0.619798 -0.030536 -0.985417 0.170159 -0.000000
0.133680 -0.333524 0.150224 0.000000 -0.000000 1.000000
0.076867 -0.978097 0.144495 0.000140 -0.134413 0.990925
0.084141 0.866748 0.098338 0.827069 0.555038 -0.088824
-0.404783 -0.863851 0.128237 -0.144150 -0.066761 0.987301
0.130693 -0.640007 -0.162828 0.000000 -0.000000 -1.000000
0.078888 -0.668146 -0.135409 0.000000 0.000000 -1.000000
0.327346 0.046084 0.018529 0.977600 0.210474 -0.000000
-0.379917 -0.602183 -0.193705 -0.015424 0.001893 -0.999879
0.209930 -0.508990 0.150224 -0.000000 0.000000 1.000000
-0.336751 -0.733503 0.183459 0.000000 -0.000000 1.000000
-0.447848 -0.579237 0.032479 -0.985417 0.170159 0.000000
0.020447 -0.352039 -0.170164 0.000000 0.000000 -1.000000
-0.325189 -0.714626 0.150224 0.000000 -0.000000 1.000000
0.185185 -0.964975 -0.098501 0.236737 -0.971410 -0.017852
0.114518 -0.250995 -0.162828 0.000000 -0.000000 -1.000000
-0.261502 -0.111762 0.151488 -0.021947 -0.005576 0.999744
0.179373 -0.762557 0.150224 0.000000 0.000000 1.000000
-0.092922 0.199164 0.064352 -0.244157 0.969417 -0.024849
-0.020215 0.565154 0.076652 0.000000 0.048589 -0.998819
-0.080543 -0.969084 -0.062229 -0.081193 -0.996520 -0.018884
0.450424 -0.707105 -0.158061 0.117976 -0.016938 -0.992872
-0.184826 0.093175 0.163076 -0.002396 0.018323 0.999829
-0.264674 0.145173 -0.116847 -0.782667 0.621323 -0.037284
0.158084 -0.908585 -0.193979 0.000857 -0.017846 -0.999840
0.248858 0.113844 -0.160940 0.018254 0.033276 -0.999279
-0.288530 0.152378 -0.166579 -0.319862 0.935937 -0.147344
0.340770 -0.356510 -0.070464 0.900216 0.435076 -0.017878
0.237953 -0.617235 0.147985 -0.000000 0.000000 1.000000
-0.393069 -0.673196 0.149466 -0.014922 -0.001957 0.999887
-0.026291 -0.024116 0.130042 0.000000 0.000000 1.000000
-0.139098 0.186546 0.094054 -0.143749 0.989462 0.017332
-0.464451 -0.685504 -0.030737 -0.989633 -0.143620 -0.000000
0.128621 -0.888861 -0.162828 0.000000 -0.000000 -1.000000
-0.226937 -0.498001 0.181152 -0.000000 0.000000 1.000000
0.050157 0.549227 0.089916 0.943689 0.042027 -0.328153
0.226358 -0.433899 0.142965 -0.000000 0.000000 1.000000
0.410438 -0.841549 -0.129454 0.893475 -0.448760 -0.017784
-0.086732 0.296353 0.162022 -0.996029 0.008004 0.088663
-0.321731 -0.322461 0.133622 -0.915204 0.349925 0.199884
-0.095809 -0.219441 0.124888 0.972933 0.231088 -0.000000
0.433030 -0.602366 0.146799 0.121262 0.019231 0.992434
0.256635 0.121489 0.010687 0.800570 0.599153 -0.010141
-0.255147 -0.967163 0.076793 -0.478790 -0.877930 -0.000000
-0.052663 -1.029800 -0.087522 -0.000258 -0.999816 -0.019199
0.002773 -0.248687 -0.162828 0.000000 0.000000 -1.000000
0.112861 -0.397605 -0.165141 0.000000 0.000000 -1.000000
0.189126 -0.986797 -0.056721 0.236775 -0.971565 0.000000
0.078065 -0.763800 0.184400 0.015037 -0.567513 0.823227
0.043603 0.757988 0.150863 0.009231 -0.013317 0.999869
-0.010372 -0.371814 0.133294 0.000000 -0.000000 1.000000
0.164583 -0.278663 -0.162828 -0.000000 0.000000 -1.000000
0.178249 -0.150395 0.172716 0.000000 -0.000000 1.000000
0.115436 -0.379654 0.150224 0.000000 -0.000000 1.000000
-0.391629 -0.851168 0.044663 -0.658670 -0.752432 0.000000
-0.028652 -0.302658 -0.162828 0.000000 0.000000 -1.000000
0.149684 0.141505 0.161892 0.021001 0.144367 0.989301
-0.196665 -0.196970 -0.162828 0.000000 0.000000 -1.000000
-0.020314 -0.833524 -0.192245 0.000000 -0.000000 -1.000000
0.022931 -0.680103 -0.162828 0.000000 0.000000 -1.000000
-0.078039 -0.703917 -0.140535 -0.000000 0.000000 -1.000000
0.077897 0.788030 0.147874 0.432965 0.002967 0.901406
0.198686 -0.181393 0.165314 0.000000 0.000000 1.000000
0.457854 -0.702023 -0.089425 0.989432 -0.143590 -0.020145
0.066661 -0.350265 0.175943 -0.309131 0.951020 0.000000
-0.328606 -0.133098 -0.032066 -0.946457 -0.322830 -0.000000
-0.196337 -0.454578 -0.158124 0.000000 0.000000 -1.000000
-0.113879 0.190194 0.094982 -0.143749 0.989462 0.017332
0.267834 0.061216 0.156097 0.018374 0.004849 0.999819
0.045052 0.233024 -0.081595 0.953397 0.078358 -0.291367
-0.341297 -0.310936 -0.047090 -0.900360 0.435145 0.000000
0.338741 -0.076041 0.055070 0.998455 -0.055572 -0.000000
-0.298540 -0.165223 0.041581 -0.946457 -0.322830 0.000000
-0.262336 0.113867 -0.160183 -0.080614 0.085201 -0.993097
0.040539 -0.915213 -0.130188 0.000000 0.000000 -1.000000
0.059251 0.478689 0.125902 0.999000 0.024123 -0.037643
-0.212178 0.052249 -0.164876 0.000000 -0.000000 -1.000000
-0.233150 -0.808474 0.150224 0.000000 0.000000 1.000000
0.480656 -0.650397 0.071311 0.985417 0.170159 0.000000
0.313478 -0.581785 0.150224 -0.000000 0.000000 1.000000
-0.232031 0.166332 -0.090983 -0.337588 0.940939 -0.025842
0.137558 -0.392934 0.150224 0.000000 0.000000 1.000000
0.099033 -0.644585 0.124170 0.000000 -0.000000 1.000000
-0.340662 -0.356970 -0.087103 -0.900175 0.435155 -0.018039
-0.083401 0.193922 -0.004979 -0.231282 0.972176 -0.037175
0.065894 -0.795080 -0.162828 0.000000 0.000000 -1.000000
0.125420 0.217151 0.109950 0.143749 0.989462 0.017329
-0.086569 0.866992 0.136908 0.226694 -0.081816 0.970524
0.249416 -0.743241 0.152248 0.000000 0.000000 1.000000
-0.063903 0.830208 0.084941 0.023708 0.000024 -0.999719
0.038003 0.970362 0.115438 -0.009905 -0.002116 -0.999949
-0.013090 -0.154289 -0.162828 -0.000000 -0.000000 -1.000000
0.132380 -0.897004 -0.135758 0.000857 -0.017846 -0.999840
0.223401 -0.429630 0.150224 -0.000000 0.000000 1.000000
0.345903 -0.023514 0.101984 0.998111 -0.055552 0.026253
0.174137 -0.599428 -0.162828 0.000000 -0.000000 -1.000000
0.315521 -0.951154 -0.053394 0.478712 -0.877809 -0.016906
0.333138 -0.119811 0.042596 0.946457 -0.322830 0.000000
0.078706 0.662875 0.160072 0.039038 0.401737 0.914922
-0.352176 -0.883560 0.147822 -0.110239 -0.143647 0.983470
-0.029359 0.127587 -0.144043 -0.000000 -0.000000 -1.000000
0.440647 -0.592449 -0.158314 0.115728 0.019873 -0.993082
0.342373 -0.661212 -0.162379 0.000000 0.000000 -1.000000
0.230122 -0.793342 -0.162828 0.000000 0.000000 -1.000000
-0.046112 -0.847764 -0.156796 0.000000 0.000000 -1.000000
0.258153 -0.886544 -0.162721 0.003080 -0.020412 -0.999787
-0.317133 0.085583 0.105829 -0.805863 0.591520 0.026257
-0.236001 -0.304713 -0.162759 -0.022991 0.006556 -0.999714
-0.048495 0.449689 0.064752 0.000000 0.132446 -0.991190
0.010253 0.449196 0.161754 0.000091 0.000001 1.000000
0.137132 -1.016538 0.093846 0.081176 -0.996310 0.027874
0.046452 -0.359637 -0.162828 0.000000 0.000000 -1.000000
-0.454799 -0.723640 0.028560 -0.989633 -0.143620 -0.000000
-0.060070 0.319751 0.080341 -0.961028 0.071764 -0.266974
-0.333614 -0.005539 -0.139327 -0.968476 0.206448 -0.139404
-0.455681 -0.712718 0.118810 -0.989273 -0.143188 0.028906
0.125237 -0.132291 -0.143641 0.000000 0.000000 -1.000000
-0.174728 -0.433231 -0.162828 0.000000 0.000000 -1.000000
-0.042055 -0.814246 -0.195872 0.000000 -0.000000 -1.000000
0.450182 -0.753305 -0.101465 0.989497 -0.143220 -0.019584
-0.370001 -0.428442 0.134637 -0.883288 0.427302 0.192913
-0.343772 -0.370967 0.139473 -0.883288 0.427302 0.192913
0.443876 -0.796274 -0.064937 0.893642 -0.448781 0.000000
-0.336462 -0.063962 -0.144456 -0.988864 -0.056146 -0.137823
0.106176 -0.695530 0.183541 0.000000 0.000000 1.000000
0.027688 0.795905 0.151186 -0.000000 0.000000 1.000000
0.007494 -1.013719 0.112004 0.000000 -0.999611 0.027877
-0.308994 -0.198073 -0.006417 -0.970224 -0.242209 0.000000
0.071238 -0.426318 0.151088 0.000000 0.000000 1.000000
0.224423 0.163008 -0.038211 0.337582 0.940912 -0.026888
-0.353560 -0.891885 -0.147547 -0.649794 -0.747986 -0.135221
-0.450232 -0.749711 0.122072 -0.989273 -0.143188 0.028906
0.090674 0.851289 0.146799 0.999004 -0.006446 -0.044151
0.304134 0.089643 -0.153737 0.766859 0.619643 -0.167244
-0.190451 -1.021732 -0.094220 -0.081149 -0.996524 -0.018832
0.388138 -0.872146 0.078692 0.658680 -0.752423 -0.000012
-0.281448 -0.976212 -0.167313 -0.475454 -0.869440 -0.134231
0.023957 -0.619825 -0.162828 0.000000 -0.000000 -1.000000
-0.249183 -0.782886 -0.178127 0.000000 -0.000000 -1.000000
0.457015 -0.637058 -0.104525 0.985210 0.170124 -0.020461
-0.254004 -0.018321 0.161602 -0.019406 0.004372 0.999802
-0.340667 -0.016144 -0.069469 -0.977548 0.209947 -0.017972
0.291802 0.058451 -0.187721 0.145909 0.031103 -0.988809
-0.122664 0.188741 0.105066 -0.143749 0.989462 0.017332
-0.106328 0.884149 0.156127 -0.968932 -0.004750 0.247283
-0.144182 -0.543679 0.150224 -0.000000 -0.000000 1.000000
-0.054940 0.500688 0.156329 -0.998941 0.023534 -0.039529
-0.377042 -0.881714 -0.072058 -0.658587 -0.752336 -0.015899
0.086475 -0.921998 -0.178243 0.000015 -0.017193 -0.999852
0.036376 -0.198581 -0.162828 0.000000 0.000000 -1.000000
0.231877 -0.105431 -0.176813 0.000000 0.000000 -1.000000
0.215027 -0.671042 0.150224 0.000000 0.000000 1.000000
0.278671 -0.281250 0.150754 0.933713 0.357002 0.027027
0.038016 0.921015 0.151060 0.008406 0.000020 0.999965
0.372058 -0.438230 -0.036301 0.883143 0.469104 0.000000
-0.057727 0.528706 0.117684 -0.998995 0.024327 -0.037643
-0.198151 -0.627139 0.175291 0.000000 0.000000 1.000000
-0.041518 0.099190 -0.162828 -0.000000 -0.000000 -1.000000
-0.325747 -0.325223 0.075069 -0.933899 0.357536 0.000000
-0.024000 -0.740171 0.160606 0.000000 -0.000000 1.000000
-0.338980 -0.027999 0.144875 -0.149656 -0.009001 0.988697
0.100923 0.038964 0.150224 0.000000 -0.000000 1.000000
0.277361 -0.248456 0.163123 0.159905 0.060898 0.985252
0.403224 -0.489919 0.142906 0.867920 0.459846 0.187770
0.119006 0.090402 0.144953 0.002635 0.018115 0.999832
0.331410 0.027206 0.034871 0.977600 0.210474 -0.000000
-0.116199 0.148173 0.150284 -0.031436 0.144852 0.988954
0.457624 -0.635849 0.077764 0.985417 0.170159 -0.000000
0.011944 -0.399786 0.122382 0.000000 0.000000 1.000000
-0.038398 0.532173 0.077985 -0.368994 0.111801 -0.922683
0.264990 -0.838901 0.159837 0.000000 0.000000 1.000000
0.374243 -0.589666 0.149562 0.015424 0.001893 0.999879
-0.141367 -0.758899 0.149784 -0.000000 0.000000 1.000000
0.295657 -0.945070 -0.040850 0.478781 -0.877934 0.000011
0.069929 -0.161496 0.154728 -0.000000 0.000000 1.000000
0.242444 -0.760563 -0.162828 0.000000 0.000000 -1.000000
0.261708 -0.195885 0.163504 0.021947 -0.005165 0.999746
-0.121650 -0.362289 -0.162828 0.000000 0.000000 -1.000000
0.026733 0.032477 0.152264 0.000000 -0.000000 1.000000
0.443134 -0.572439 -0.145724 0.973599 0.167191 -0.155411
-0.165513 -0.844676 0.148817 -0.000000 0.000000 1.000000
0.311357 -0.287961 -0.015045 0.933899 0.357536 0.000000
0.453086 -0.741984 -0.024298 0.989633 -0.143620 0.000000
0.288915 -0.362028 0.149442 0.021360 0.007752 0.999742
0.289679 0.000054 0.150169 0.019314 -0.000934 0.999813
0.369233 -0.415185 -0.010168 0.900360 0.435145 0.000000
0.026457 0.917011 0.075256 -0.010372 -0.000298 -0.999946
0.121796 0.057255 0.150224 0.000000 0.000000 1.000000
0.442447 -0.768627 -0.141467 0.885152 -0.444580 -0.137309
-0.050725 -0.565102 0.150224 0.000000 0.000000 1.000000
0.295009 0.109779 -0.001844 0.791944 0.610386 -0.015937
-0.119970 -0.503815 0.150224 -0.000000 0.000000 1.000000
0.308586 -0.280337 0.026841 0.933899 0.357536 0.000000
-0.234590 -0.847582 0.150224 0.000000 0.000000 1.000000
-0.460944 -0.679603 -0.054498 -0.989633 -0.143620 0.000000
-0.339086 -0.060049 -0.095754 -0.998297 -0.055563 -0.017769
0.019383 -0.963484 -0.132425 0.000025 -0.017181 -0.999852
0.323772 0.062684 -0.044703 0.977599 0.210474 -0.000000
0.465014 -0.746702 -0.032919 0.989633 -0.143620 0.000000
0.336031 -0.783666 -0.162734 0.016224 -0.007514 -0.999840
-0.257498 -0.107339 -0.161399 -0.020543 -0.006516 -0.999768
-0.321653 -0.571415 -0.162828 -0.000000 -0.000000 -1.000000
-0.238001 -0.027395 -0.143641 -0.000000 -0.000000 -1.000000
0.267607 -0.837618 0.150224 0.000000 0.000000 1.000000
0.180176 -0.051060 -0.196157 0.000000 -0.000000 -1.000000
-0.459449 -0.649126 0.096632 -0.984967 0.170082 0.030199
-0.244376 -0.205584 0.124800 -0.022767 -0.001104 0.999740
-0.048049 0.100286 -0.162828 -0.000000 -0.000000 -1.000000
-0.181241 -0.916693 0.183488 -0.000857 -0.017846 0.999840
-0.043174 0.280401 0.162434 -0.045995 0.000209 0.998942
-0.444153 -0.560726 0.050583 -0.985417 0.170159 0.000000
0.324604 -0.924067 0.135472 0.644316 -0.741681 0.186458
-0.140750 -0.421878 0.117525 -0.000000 0.000000 1.000000
-0.301696 -0.831877 0.150224 0.000000 -0.000000 1.000000
-0.030284 -0.258759 -0.129671 0.000000 0.000000 -1.000000
-0.122938 0.085447 0.150224 -0.000000 0.000000 1.000000
0.298074 -0.424472 -0.192314 0.018277 0.008294 -0.999799
-0.180966 -0.427278 0.150224 0.000000 0.000000 1.000000
-0.391417 -0.762659 -0.163056 -0.015488 -0.001535 -0.999879
-0.001418 -0.948066 0.149311 -0.000025 -0.017181 0.999852
-0.121056 0.155683 -0.191930 -0.003892 0.017082 -0.999846
-0.100976 -0.460235 0.150224 -0.000000 0.000000 1.000000
0.000385 0.988987 0.145251 -0.295693 0.442243 0.846751
-0.071296 0.215599 0.063394 -0.905186 0.414548 -0.093740
-0.096130 -0.746641 0.152838 -0.000779 -0.567577 0.823320
-0.088600 0.837026 0.100714 -0.994362 -0.003839 -0.105966
0.101950 -0.773916 -0.189602 0.000000 -0.000000 -1.000000
0.438145 -0.786070 0.127270 0.877461 -0.440717 0.189288
-0.048277 0.248405 -0.083005 -0.986089 0.081102 -0.145090
-0.038655 0.284261 0.022691 -0.488993 0.384393 -0.783024
-0.063995 0.181438 -0.046822 -0.924233 0.350850 -0.150654
-0.073110 0.215199 0.079138 -0.905186 0.414548 -0.093740
0.086713 0.473481 0.159472 0.995351 0.024180 0.093231
0.137490 -0.617226 -0.162828 0.000000 -0.000000 -1.000000
0.437713 -0.743204 -0.155186 0.122616 -0.016080 -0.992324
-0.044767 -0.635904 0.150224 0.000000 0.000000 1.000000
-0.106055 -0.590916 0.149477 0.000000 0.000000 1.000000
0.205038 -0.818579 -0.162828 -0.000000 0.000000 -1.000000
-0.319714 -0.156991 0.156141 -0.929513 -0.315433 0.191071
-0.304604 -0.225396 -0.036796 -0.998907 -0.046740 -0.000000
-0.321883 -0.321544 -0.098221 -0.933736 0.357473 -0.018711
-0.022519 -0.849884 0.150224 0.000000 -0.000000 1.000000
-0.152305 -0.662341 0.155233 0.000000 0.000000 1.000000
0.039187 -0.964000 -0.161641 0.000025 -0.017181 -0.999852
-0.165984 -0.647732 -0.161941 0.000000 0.000000 -1.000000
0.403020 -0.858865 0.020943 0.893642 -0.448781 -0.000000
-0.208814 0.064429 -0.148079 -0.000000 0.000000 -1.000000
0.043615 0.743257 0.087659 0.128104 -0.070464 -0.989254
-0.115651 -0.601712 0.150929 0.000000 0.000000 1.000000
-0.055576 -0.431868 0.150224 0.000000 -0.000000 1.000000
0.376805 -0.507103 0.133624 0.015332 0.007577 0.999854
-0.237161 0.159483 0.079347 -0.363367 0.931635 -0.004549
-0.009085 0.688308 0.172525 -0.000165 0.413801 0.910367
-0.321464 -0.314363 0.005311 -0.933899 0.357536 -0.000000
0.290642 -0.120982 -0.194699 0.020543 -0.006516 -0.999768
0.183991 -0.892278 -0.162800 0.000857 -0.017846 -0.999840
-0.084907 -0.246849 0.114622 0.000000 -0.000000 1.000000
0.447572 -0.609097 -0.157359 0.973599 0.167191 -0.155411
0.119236 -0.972541 -0.159158 0.000015 -0.017193 -0.999852
0.163026 -0.669796 -0.162828 0.000000 0.000000 -1.000000
-0.300695 -0.949530 -0.081939 -0.478721 -0.877804 -0.016906
0.212994 -0.268773 -0.162828 -0.000000 0.000000 -1.000000
0.171483 0.184878 -0.027911 0.139277 0.990194 -0.010839
0.051362 -0.529713 0.150224 -0.000000 0.000000 1.000000
0.062871 -0.036891 0.128081 0.999666 0.000000 -0.025856
0.259664 -0.964699 0.073658 0.478781 -0.877934 -0.000013
-0.134728 -0.614424 -0.161851 0.000000 0.000000 -1.000000
0.187105 -0.105785 -0.162828 0.000000 0.000000 -1.000000
-0.175216 -0.631475 -0.140816 0.000000 0.000000 -1.000000
-0.291565 -0.946980 -0.081858 -0.478721 -0.877804 -0.016906
0.163965 -0.965197 -0.098324 0.236737 -0.971410 -0.017852
0.447984 -0.768934 -0.075213 0.893502 -0.448710 -0.017698
-0.181082 0.070026 0.119730 -0.000000 0.000000 1.000000
-0.296059 -0.182648 0.147209 -0.165169 -0.041378 0.985397
-0.078924 -0.725661 -0.177296 -0.000000 0.000000 -1.000000
-0.310382 0.089144 -0.059274 -0.791944 0.610386 -0.015937
-0.079923 0.261809 0.116046 -0.984865 0.171081 -0.027783
0.451864 -0.602496 -0.052373 0.985417 0.170159 -0.000000
0.325283 -0.918862 -0.099928 0.657881 -0.752921 -0.017408
-0.102326 -0.864072 0.150224 0.000000 0.000000 1.000000
-0.041977 0.546511 0.080187 -0.368994 0.111801 -0.922683
0.065311 0.151766 -0.162313 0.002934 0.010723 -0.999938
-0.377904 -0.691130 -0.139065 -0.014922 -0.001957 -0.999887
-0.059835 -0.973014 0.148208 -0.000196 -0.134246 0.990948
0.001798 0.246927 -0.131385 0.000000 0.993466 -0.114128
0.012449 0.711863 0.085951 0.000027 0.231424 -0.972853
-0.091021 0.811429 0.157247 -0.999004 -0.006446 -0.044149
0.276782 0.134300 0.010223 0.800612 0.599184 -0.000000
0.361126 -0.918669 0.090691 0.658680 -0.752423 -0.000012
0.040948 0.184210 0.162823 0.000118 -0.000032 1.000000
-0.456823 -0.514686 -0.112946 -0.882998 0.469027 -0.018099
0.108637 0.189189 -0.053538 0.131375 0.991169 -0.018002
-0.059852 0.667753 0.125263 -0.999149 0.008481 0.040377
-0.309594 -0.587166 -0.162828 -0.000000 -0.000000 -1.000000
-0.111593 0.191400 0.086610 -0.139278 0.990180 -0.012050
0.338858 -0.352337 -0.020910 0.900360 0.435145 -0.000000
0.421806 -0.843256 0.125612 0.893309 -0.448677 0.026251
-0.086626 -0.816327 0.150224 0.000000 -0.000000 1.000000
0.253529 -0.938652 -0.015239 0.478790 -0.877930 -0.000000
-0.082609 0.752106 0.134503 -0.998418 -0.035275 -0.043776
-0.016273 0.020447 -0.190469 -0.000000 -0.000000 -1.000000
-0.150740 -0.732217 0.160606 -0.000000 0.000000 1.000000
0.381496 -0.442634 0.090767 0.883143 0.469104 0.000000
-0.289237 -0.180151 0.148468 -0.170054 -0.040018 0.984622
-0.136788 0.012480 -0.142428 0.000000 0.000000 -1.000000
-0.018746 -0.230623 -0.162828 0.000000 0.000000 -1.000000
0.025328 0.957375 0.105970 0.000000 -0.000000 -1.000000
0.378385 -0.443841 -0.157331 0.875404 0.463811 -0.136189
-0.379762 -0.708273 -0.160250 -0.014922 -0.001957 -0.999887
-0.025943 0.971599 0.151178 -0.001021 0.000229 0.999999
-0.099084 -0.942915 -0.140722 -0.001268 -0.017389 -0.999848
0.034010 -1.000000 -0.053336 -0.000000 -1.000000 -0.000000
0.340808 -0.044064 0.015310 0.998455 -0.055572 -0.000000
0.027256 0.882301 0.143505 0.954328 0.044092 0.295488
0.267902 -0.588333 0.150986 -0.000000 0.000000 1.000000
0.273144 -0.128168 0.149571 0.020543 -0.006516 0.999768
0.273245 -0.938855 -0.081397 0.478963 -0.877665 -0.017280
-0.259775 -0.468938 0.150224 -0.000000 0.000000 1.000000
-0.038939 -0.503933 -0.146153 -0.000000 -0.000000 -1.000000
-0.049396 0.554891 0.088408 -0.944260 0.023080 -0.328389
0.314898 0.008324 -0.022662 0.977599 0.210474 -0.000000
-0.226617 -0.977661 0.022520 -0.236775 -0.971565 -0.000000
-0.240765 0.174859 0.071175 -0.363367 0.931635 -0.004549
-0.326060 -0.140563 -0.004755 -0.946457 -0.322830 -0.000000
0.243593 -0.172125 0.151097 0.000000 -0.000000 1.000000
-0.056437 0.544578 0.159092 -0.995800 0.023563 0.088470
0.166317 -0.422804 -0.160997 0.000000 0.000000 -1.000000
0.073893 -0.757050 -0.162828 0.000000 0.000000 -1.000000
0.142337 -0.815124 -0.134672 -0.000000 0.000000 -1.000000
0.337069 -0.003335 -0.115536 0.977548 0.209947 -0.017972
0.094907 -0.080712 -0.161453 -0.000000 0.000000 -1.000000
0.134963 0.059861 -0.162828 -0.000000 0.000000 -1.000000
-0.060924 -1.024537 -0.133156 -0.001027 -0.988871 -0.148769
-0.054376 0.614325 0.106351 -0.939578 0.019136 -0.341799
0.206883 -0.677595 0.128433 -0.000000 0.000000 1.000000
-0.052583 -0.400936 0.150224 0.000000 -0.000000 1.000000
-0.173609 0.091444 -0.162094 -0.002260 0.018479 -0.999827
0.161828 -0.196672 0.150224 0.000000 0.000000 1.000000
0.043289 -0.611969 -0.142509 0.000000 0.000000 -1.000000
-0.054510 0.341988 0.064690 -0.972207 0.085572 -0.217924
0.111565 0.163782 -0.030661 0.131375 0.991169 -0.018002
-0.155457 -0.803411 0.150224 -0.000000 0.000000 1.000000
-0.310422 -0.220395 0.098435 -0.998515 -0.046722 0.028001
0.034858 0.394849 0.058321 0.446463 0.118603 -0.886907
-0.167632 0.161246 0.074195 -0.146058 0.989049 0.021174
-0.328203 0.039065 0.106492 -0.977282 0.210406 0.025466
0.188383 -0.245275 0.166391 0.000000 0.000000 1.000000
0.076652 0.209625 0.112030 0.908647 0.416963 -0.022424
-0.110603 -0.516211 -0.159998 0.000000 0.000000 -1.000000
0.192328 -0.986017 0.019790 0.236775 -0.971565 0.000000
-0.109436 -0.609387 0.157989 0.000000 0.000000 1.000000
-0.062731 -0.371341 0.150224 0.000000 -0.000000 1.000000
-0.362866 -0.894086 0.081530 -0.658489 -0.752224 0.023469
0.031384 0.040947 0.162828 0.000000 -0.000000 1.000000
-0.329837 -0.336593 -0.076590 -0.900175 0.435155 -0.018039
-0.307337 -0.204712 -0.027123 -0.970224 -0.242209 0.000000
-0.055292 -0.673133 -0.168849 -0.000000 -0.000000 -1.000000
0.284130 -0.281875 0.148572 0.170428 0.060654 0.983502
-0.061033 0.729297 0.100039 -0.998388 -0.033536 -0.045783
-0.178942 -0.963478 -0.160942 -0.035739 -0.146504 -0.988564
0.438667 -0.540450 0.059463 0.883143 0.469104 0.000000
0.032692 0.862922 0.085766 -0.010819 -0.000215 -0.999941
0.285280 -0.030827 0.162240 0.019314 -0.000934 0.999813
-0.432556 -0.793560 -0.144634 -0.885152 -0.444580 -0.137309
0.349718 -0.365081 -0.090817 0.900175 0.435155 -0.018039
-0.179623 0.042768 0.150224 -0.000000 0.000000 1.000000
0.040026 0.332872 0.026116 0.505743 0.297376 -0.809810
-0.319377 -0.308911 -0.005252 -0.933899 0.357536 -0.000000
0.298088 -0.614771 0.153328 -0.000000 0.000000 1.000000
0.244839 0.014152 -0.162641 0.016597 0.005671 -0.999846
-0.089891 -0.575008 -0.129754 -0.000000 -0.000000 -1.000000
-0.038908 -0.957300 0.149152 -0.000025 -0.017181 0.999852
-0.269263 -0.929966 0.114821 -0.100037 -0.182933 0.978023
0.218637 0.166664 0.070383 0.363357 0.931639 -0.004563
0.086289 -0.511951 -0.141863 0.000000 0.000000 -1.000000
0.303558 -0.226480 0.116864 0.998453 -0.047506 0.028901
0.185802 -0.950570 -0.150599 0.234696 -0.962058 -0.139151
-0.217845 0.166161 0.015760 -0.354162 0.935015 -0.017769
0.321130 0.116370 0.006820 0.800612 0.599184 -0.000000
-0.048889 0.400671 0.161143 -0.038805 0.000908 0.999246
0.037519 0.257331 0.087179 0.908969 0.416277 -0.022097
0.226202 0.160984 -0.087568 0.337591 0.940938 -0.025842
-0.266842 0.147022 0.144803 -0.804838 0.593064 0.022604
-0.027553 -0.612377 -0.162828 -0.000000 -0.000000 -1.000000
0.229567 0.171302 -0.104248 0.319863 0.935939 -0.147332
-0.069498 0.082608 0.150224 -0.000000 0.000000 1.000000
0.064416 -0.397783 0.149513 0.000000 0.000000 1.000000
-0.380071 -0.437116 0.061514 -0.883143 0.469104 -0.000000
-0.408497 -0.415365 0.123317 -0.882971 0.468713 0.025888
0.234243 -0.629130 -0.162828 0.000000 -0.000000 -1.000000
0.342043 -0.081511 -0.112291 0.998207 -0.056676 -0.019228
-0.110213 -0.433025 -0.162828 0.000000 0.000000 -1.000000
-0.076430 0.206084 0.177946 -0.042195 -0.000371 0.999109
0.276753 0.134965 0.089337 0.804841 0.593059 0.022617
-0.345161 0.012815 -0.131506 -0.145909 0.031103 -0.988809
0.322431 0.068911 0.061879 0.977600 0.210474 -0.000000
0.112812 -0.010827 0.151116 0.000000 0.000000 1.000000
0.440466 -0.550816 0.049301 0.883143 0.469104 0.000000
-0.058559 0.087880 -0.172096 0.000000 0.000000 -1.000000
0.332434 -0.504629 -0.162347 0.018277 0.007157 -0.999807
-0.346150 -0.882339 0.079163 -0.658489 -0.752224 0.023469
0.108351 -0.733479 0.160606 0.000000 -0.000000 1.000000
-0.286189 -0.933306 0.084037 -0.478879 -0.877511 0.025487
-0.008274 0.937193 0.151186 -0.000000 0.000000 1.000000
-0.128666 -0.712825 -0.129579 -0.000000 -0.000000 -1.000000
-0.339678 -0.862973 0.149545 -0.018367 -0.006453 0.999811
0.306244 -0.284343 0.067879 0.933899 0.357536 0.000000
0.328347 -0.330588 0.032886 0.900360 0.435145 -0.000000
0.454605 -0.635399 -0.084636 0.985210 0.170124 -0.020461
0.021290 -0.997029 -0.143671 0.000256 -0.989228 -0.146379
0.059128 0.915586 0.118403 0.954328 0.044092 0.295488
0.166433 -0.276424 -0.162828 -0.000000 0.000000 -1.000000
0.294121 -0.698417 -0.165818 0.000000 0.000000 -1.000000
-0.067482 -0.760040 -0.162828 0.000000 0.000000 -1.000000
0.435628 -0.548434 -0.136534 0.882998 0.469027 -0.018099
0.147494 -0.707524 0.150224 0.000000 0.000000 1.000000
0.025370 0.027103 0.164668 0.000000 -0.000000 1.000000
-0.134513 -0.489854 0.150224 -0.000000 0.000000 1.000000
-0.462753 -0.683912 0.092111 -0.989633 -0.143620 0.000000
0.339654 -0.054910 -0.079917 0.998297 -0.055563 -0.017769
0.411530 -0.524292 -0.097849 0.883131 0.468798 -0.017539
-0.375406 -0.648004 -0.162272 -0.014658 0.002325 -0.999890
-0.415527 -0.867206 -0.093324 -0.893475 -0.448760 -0.017798
-0.356780 -0.899598 0.013649 -0.658670 -0.752432 0.000000
0.171730 0.136392 0.150742 0.002635 0.018115 0.999832
-0.427006 -0.808847 -0.122251 -0.893475 -0.448760 -0.017798
-0.437321 -0.520650 0.077996 -0.882828 0.468937 0.026714
-0.220474 -0.978482 -0.101882 -0.236788 -0.971396 -0.017917
-0.348047 -0.351643 0.040648 -0.900360 0.435145 0.000000
0.192437 0.117279 0.149561 0.002396 0.018323 0.999829
0.080751 -0.998724 0.040652 0.081207 -0.996697 0.000000
-0.060362 0.425737 0.146592 -0.999073 0.023387 0.036137
-0.031968 0.466424 0.065547 -0.397391 0.113909 -0.910552
0.253124 -0.533090 -0.162828 -0.000000 0.000000 -1.000000
0.072975 0.272694 0.187799 0.042045 0.006547 0.999094
0.334155 0.014455 0.041177 0.977600 0.210474 0.000000
