ply
format ascii 1.0
element vertex 838
property float x
property float y
property float z
property float nx
property float ny
property float nz
end_header
-0.191870 -0.700700 0.174890 -0.000000 0.000000 1.000000
0.042033 0.076370 0.162822 0.000205 0.000124 1.000000
0.162801 -0.214326 0.150224 0.000000 0.000000 1.000000
-0.253641 -0.802653 0.150224 0.000000 -0.000000 1.000000
0.437847 -0.844701 -0.027823 0.893642 -0.448781 -0.000000
-0.047092 0.518400 0.079793 -0.368994 0.111801 -0.922683
-0.079438 0.186537 -0.155654 -0.124471 0.981932 -0.142539
-0.340441 -0.045500 -0.006768 -0.998455 -0.055572 0.000000
0.451091 -0.741515 0.129438 0.966661 -0.139915 0.214452
0.020812 -0.583559 0.150224 -0.000000 0.000000 1.000000
0.247510 -0.969642 -0.010613 0.478790 -0.877930 -0.000000
0.213310 -0.659025 0.150224 0.000000 0.000000 1.000000
0.233371 -0.575629 0.120562 -0.000000 0.000000 1.000000
0.054462 0.009509 -0.162828 -0.000000 0.000000 -1.000000
-0.310824 -0.194239 -0.121046 -0.970017 -0.242336 -0.018425
-0.113476 -0.997196 -0.073404 -0.081193 -0.996520 -0.018884
-0.309653 -0.335521 0.148451 -0.159787 0.072509 0.984485
0.263123 0.146868 -0.119238 0.337591 0.940938 -0.025842
0.438665 -0.826254 -0.166046 0.885152 -0.444580 -0.137309
-0.044390 -0.078021 0.162828 0.000000 0.000000 1.000000
0.463059 -0.669559 -0.040787 0.989633 -0.143620 0.000000
0.086285 0.844478 0.136074 0.218195 -0.001026 0.975905
0.060399 0.410160 0.111950 0.999107 0.023859 -0.034859
-0.184135 -0.657372 -0.162828 0.000000 0.000000 -1.000000
0.063038 0.260043 0.103587 0.999564 0.008389 -0.028318
0.395076 -0.465364 0.037934 0.883143 0.469104 0.000000
0.070827 0.689495 0.082444 0.255650 0.229530 -0.939127
0.268672 -0.062692 -0.162410 0.018780 0.000456 -0.999824
0.331332 -0.731684 0.157539 -0.000000 0.000000 1.000000
0.155056 -0.034337 0.150224 0.000000 0.000000 1.000000
-0.317894 -0.938136 0.124449 -0.657764 -0.752787 0.025678
-0.166832 -0.003224 0.150224 -0.000000 0.000000 1.000000
0.246926 -0.967615 0.162758 0.003080 -0.020412 0.999787
0.004252 0.232865 -0.150256 0.017170 0.716061 -0.697827
0.158377 -0.884625 0.150224 0.000000 0.000000 1.000000
-0.355673 -0.864948 -0.161806 -0.026517 -0.048461 -0.998473
-0.152201 -0.994196 -0.016988 -0.081207 -0.996697 -0.000000
0.229479 0.160735 -0.054250 0.337582 0.940912 -0.026888
-0.102431 -0.515388 -0.162828 -0.000000 -0.000000 -1.000000
0.190750 0.110376 0.149692 0.002396 0.018323 0.999829
-0.299518 0.103974 -0.006829 -0.800571 0.599153 -0.010132
-0.285848 -0.008458 -0.162009 -0.018853 0.004626 -0.999812
0.343798 -0.430907 0.122142 0.900047 0.434994 0.026389
-0.064091 0.204569 -0.027763 -0.924233 0.350850 -0.150654
-0.446700 -0.730232 -0.158109 -0.117976 -0.016938 -0.992872
0.227469 -0.540400 0.150224 -0.000000 0.000000 1.000000
-0.315414 0.043527 -0.016478 -0.800612 0.599184 0.000000
0.153675 0.183531 -0.032490 0.139277 0.990194 -0.010839
-0.055759 0.662140 0.178118 -0.999149 0.008481 0.040377
0.382852 -0.876773 0.039176 0.658675 -0.752428 0.000000
-0.311428 -0.425778 -0.162160 -0.018277 0.008294 -0.999799
-0.168746 -0.457662 -0.162828 0.000000 0.000000 -1.000000
0.162601 -0.924812 0.149634 0.000857 -0.017846 0.999840
0.053080 0.529406 0.095785 0.943689 0.042027 -0.328153
-0.444344 -0.554998 0.083460 -0.882828 0.468937 0.026714
-0.082928 0.905539 0.141116 -0.967016 -0.003173 0.254697
-0.163091 -0.666040 -0.163290 0.000000 0.000000 -1.000000
0.370295 -0.663714 -0.162384 0.014658 0.002325 -0.999890
-0.338275 -0.353566 -0.126335 -0.900175 0.435155 -0.018039
0.153782 0.159633 0.148253 0.021001 0.144367 0.989301
-0.054433 0.423378 0.075730 -0.958415 0.038926 -0.282713
-0.303930 -0.268561 0.026729 -0.933899 0.357536 -0.000000
-0.224518 0.095554 -0.123837 -0.018254 0.033276 -0.999279
-0.043123 0.921087 0.085566 0.031687 -0.000749 -0.999498
0.038901 0.750468 0.150900 0.039901 0.003194 0.999199
0.221996 -0.769579 0.150224 0.000000 0.000000 1.000000
-0.166419 0.176768 -0.147969 -0.313904 0.934650 -0.167013
0.199341 0.158923 0.146920 0.061906 0.156616 0.985718
-0.078069 0.195102 0.109103 -0.250589 0.968006 0.013025
0.352756 -0.715165 -0.162600 0.015488 -0.001535 -0.999879
-0.301569 -0.941846 0.033213 -0.478790 -0.877930 0.000000
0.244392 -0.385413 0.150224 -0.000000 0.000000 1.000000
-0.042077 0.838702 0.137063 -0.008593 0.001459 0.999962
-0.448588 -0.586304 -0.088381 -0.985257 0.169900 -0.020079
0.108383 -0.634230 0.150224 -0.000000 0.000000 1.000000
0.457635 -0.706937 0.061210 0.989633 -0.143620 0.000000
-0.353097 -0.598269 -0.162509 -0.015424 0.001893 -0.999879
-0.265440 -0.432871 0.150224 -0.000000 0.000000 1.000000
-0.023187 -0.095264 -0.162828 0.000000 0.000000 -1.000000
0.013471 0.445505 0.161754 0.000091 0.000001 1.000000
0.081080 0.717681 0.116918 0.997874 -0.038534 -0.052566
-0.156696 -0.706724 -0.162828 -0.000000 0.000000 -1.000000
0.136673 -0.566352 -0.162828 0.000000 -0.000000 -1.000000
0.022836 0.383844 0.053818 0.000000 0.127593 -0.991827
-0.422922 -0.815765 0.007586 -0.893646 -0.448773 -0.000000
0.315271 -0.299284 -0.086174 0.933736 0.357473 -0.018711
0.312881 -0.310216 0.073116 0.933899 0.357536 0.000000
-0.325017 -0.927176 -0.075291 -0.657881 -0.752921 -0.017396
0.406102 -0.852728 0.068446 0.893642 -0.448781 -0.000000
0.321427 -0.784587 0.150224 0.000000 0.000000 1.000000
-0.070619 -0.739304 -0.162828 -0.000000 0.000000 -1.000000
0.204263 -0.504584 0.150224 0.000000 0.000000 1.000000
0.328558 0.038127 0.063090 0.977600 0.210474 0.000000
-0.234704 -0.187240 0.150087 -0.022767 -0.004282 0.999732
0.312035 -0.289733 0.003168 0.933899 0.357536 0.000000
-0.325358 -0.324641 -0.070895 -0.900175 0.435155 -0.018039
0.288309 -0.932706 0.001207 0.478790 -0.877930 -0.000000
-0.310356 -0.718419 -0.162828 -0.000000 0.000000 -1.000000
0.164051 0.156754 0.177263 0.145893 0.974104 0.172731
-0.334495 -0.574242 0.150146 -0.015424 0.001893 0.999879
-0.144995 -0.883785 -0.162828 0.000000 0.000000 -1.000000
0.188656 -0.986912 0.020657 0.236775 -0.971565 0.000000
0.120911 -0.368659 -0.168921 0.000000 -0.000000 -1.000000
-0.022097 -0.790208 0.150224 -0.000000 -0.000000 1.000000
-0.210042 -0.216969 0.163669 0.000000 -0.000000 1.000000
0.120770 -0.337759 -0.162828 0.000000 -0.000000 -1.000000
-0.039020 0.470814 0.070338 -0.397391 0.113909 -0.910552
-0.444872 -0.648571 0.146340 -0.115728 0.019873 0.993082
0.083730 0.924142 0.164562 0.999052 0.012685 -0.041646
-0.004905 -0.511382 0.150224 -0.000000 0.000000 1.000000
0.347834 -0.373190 -0.134525 0.900175 0.435155 -0.018039
-0.337738 -0.094051 -0.000416 -0.998455 -0.055572 0.000000
-0.394523 -0.719720 0.110309 -0.014922 -0.001957 0.999887
-0.209419 -0.761994 0.150224 -0.000000 0.000000 1.000000
-0.031237 -0.761285 0.153348 -0.001658 -0.563713 0.825969
-0.061613 0.363352 0.150244 -0.995979 0.018609 0.087634
-0.134576 0.184376 -0.092583 -0.131421 0.990924 -0.028238
0.324489 -0.370520 -0.160512 0.159781 0.072508 -0.984486
-0.261162 -0.627149 0.120715 0.000000 0.000000 1.000000
-0.021633 -0.082456 0.162828 0.000000 0.000000 1.000000
-0.164127 -0.024397 -0.162827 -0.000000 0.000000 -1.000000
0.080263 -0.733260 -0.162828 0.000000 0.000000 -1.000000
0.033145 0.327215 0.072453 0.999285 0.024780 -0.028554
-0.293743 -0.946114 0.035432 -0.478790 -0.877930 0.000000
0.452216 -0.686935 0.107586 0.117975 -0.016938 0.992872
-0.418657 -0.740784 0.148752 -0.122615 -0.016080 0.992324
-0.005910 -0.368469 -0.162828 0.000000 0.000000 -1.000000
0.000606 0.672984 0.160136 -0.000000 0.414028 0.910264
0.307795 -0.577148 -0.162828 0.000000 -0.000000 -1.000000
0.285756 -0.688419 0.150224 -0.000000 0.000000 1.000000
0.305050 -0.215876 -0.009122 0.998907 -0.046740 0.000000
0.160638 -0.812480 -0.162828 -0.000000 0.000000 -1.000000
0.080557 -0.952567 0.149228 0.000025 -0.017181 0.999852
-0.348059 -0.539051 -0.162359 -0.015332 0.007577 -0.999854
-0.195224 -0.012261 -0.125854 0.000000 -0.000000 -1.000000
0.368099 -0.888996 -0.097970 0.658597 -0.752328 -0.015890
-0.253597 -0.249392 -0.156056 -0.022992 -0.000878 -0.999735
-0.455713 -0.720180 0.032751 -0.989633 -0.143620 -0.000000
-0.232833 -0.057545 0.150384 0.000000 0.000000 1.000000
0.023073 0.798100 0.151186 -0.000000 0.000000 1.000000
0.428697 -0.529028 0.086948 0.882828 0.468937 0.026714
-0.182635 -0.746417 0.150224 -0.000000 0.000000 1.000000
0.447344 -0.764909 -0.134167 0.978397 -0.140471 -0.151678
0.222065 -0.196262 0.150224 0.000000 0.000000 1.000000
0.301198 -0.633712 0.164613 -0.000000 0.000000 1.000000
-0.306622 -0.207576 -0.039961 -0.970224 -0.242209 0.000000
-0.215102 -0.804966 -0.162828 0.000000 -0.000000 -1.000000
0.054776 0.603651 0.106854 0.939583 0.019139 -0.341786
-0.080024 -0.408928 -0.194999 0.000000 -0.000000 -1.000000
-0.339579 -0.060971 -0.040082 -0.998455 -0.055572 -0.000000
-0.415965 -0.504691 -0.058306 -0.883143 0.469104 0.000000
0.129920 -0.842316 0.150224 0.000000 0.000000 1.000000
0.103774 -0.109231 0.150224 0.000000 -0.000000 1.000000
-0.318578 0.077984 -0.077945 -0.791919 0.610367 -0.017763
0.197849 -0.977610 0.085069 0.236693 -0.971227 0.026350
0.120722 0.187628 -0.051313 0.131375 0.991169 -0.018002
0.225580 -0.407824 0.150224 -0.000000 0.000000 1.000000
0.327189 0.046814 -0.050969 0.977599 0.210474 0.000000
0.198760 -0.133682 -0.162943 0.000000 0.000000 -1.000000
0.079297 0.822281 0.086964 0.981979 -0.004136 -0.188943
-0.357553 -0.766300 0.149894 -0.015489 -0.001535 0.999879
-0.283684 -0.343324 -0.162012 -0.021359 0.007752 -0.999742
0.267750 -0.368961 0.150379 0.021360 0.007752 0.999742
0.103114 -0.800909 -0.162828 0.000000 0.000000 -1.000000
0.338214 -0.089968 -0.062074 0.998455 -0.055572 0.000000
-0.255824 0.008038 0.149940 -0.018374 0.004849 0.999819
-0.262626 -0.903628 0.142402 -0.003080 -0.020412 0.999787
-0.291566 -0.203250 -0.159731 -0.170055 -0.040018 -0.984622
0.425498 -0.570287 0.011553 0.985417 0.170159 0.000000
-0.458269 -0.702563 0.079835 -0.989633 -0.143620 0.000000
0.408958 -0.493976 0.125560 0.882971 0.468713 0.025888
0.372539 -0.668422 -0.162362 0.014658 0.002325 -0.999890
-0.074037 -1.000000 0.004564 0.000000 -1.000000 0.000000
-0.101505 -0.893381 0.150224 0.000000 0.000000 1.000000
-0.441673 -0.781066 0.003521 -0.893646 -0.448773 -0.000000
-0.033756 -0.887712 -0.162828 0.000000 0.000000 -1.000000
0.330088 -0.131593 0.028755 0.946457 -0.322830 0.000000
-0.062072 0.228734 0.025247 -0.952451 0.291353 -0.089165
-0.191272 -0.529988 -0.173949 0.000000 0.000000 -1.000000
-0.271407 0.136730 -0.116197 -0.782667 0.621323 -0.037284
-0.058798 0.191937 0.163328 -0.059383 0.019053 0.998053
0.369419 -0.415570 0.066393 0.900360 0.435145 0.000000
-0.132630 -0.298657 0.150224 0.000000 0.000000 1.000000
-0.001947 -0.649094 -0.162828 -0.000000 -0.000000 -1.000000
-0.289731 0.154954 -0.092731 -0.791919 0.610367 -0.017763
-0.293883 -0.265168 -0.158474 -0.170737 -0.008278 -0.985282
0.063342 -0.004429 -0.125117 -0.000000 0.000000 -1.000000
-0.118400 0.182692 -0.152053 -0.124471 0.981932 -0.142539
0.050015 -0.344253 0.150219 0.000000 0.000000 1.000000
0.365189 -0.740411 -0.162368 0.015488 -0.001535 -0.999879
-0.302511 0.017454 0.148999 -0.019406 0.004372 0.999802
0.259356 -0.622940 0.150224 -0.000000 0.000000 1.000000
0.400470 -0.475518 0.021707 0.883143 0.469104 0.000000
0.355557 -0.390643 -0.135270 0.891618 0.431019 -0.138711
0.453727 -0.605185 -0.033150 0.985417 0.170159 -0.000000
0.086426 0.055028 -0.162828 -0.000000 0.000000 -1.000000
-0.135982 0.170358 0.148367 -0.021001 0.144367 0.989301
0.036297 0.251570 -0.050420 0.223438 0.955863 -0.190791
0.128373 -0.824934 0.150224 0.000000 0.000000 1.000000
-0.122093 -0.365256 -0.162828 0.000000 0.000000 -1.000000
-0.049543 -0.834648 0.117355 0.000000 -0.000000 1.000000
0.015247 -0.276559 -0.162828 0.000000 0.000000 -1.000000
0.446102 -0.769520 -0.134606 0.885152 -0.444580 -0.137309
-0.371708 -0.420306 0.070293 -0.900360 0.435145 -0.000000
0.444164 -0.551406 0.039828 0.883143 0.469104 0.000000
-0.082486 0.809032 0.141274 -0.970761 -0.003188 0.240026
-0.270635 0.141096 -0.069444 -0.791944 0.610386 -0.015937
0.392170 -0.459893 0.026503 0.883143 0.469104 0.000000
-0.145667 -0.721089 0.158126 0.004001 0.579142 0.815217
0.335538 -0.801245 -0.162623 0.018367 -0.006453 -0.999811
-0.315230 -0.511934 0.111639 -0.018277 0.007157 0.999807
-0.262849 -0.240012 -0.161909 -0.022767 -0.001104 -0.999740
0.304566 -0.226219 -0.038764 0.998907 -0.046740 0.000000
0.300646 -0.737627 0.150224 -0.000000 0.000000 1.000000
0.139028 -0.303594 -0.162829 -0.000000 -0.000000 -1.000000
0.451982 -0.654271 0.145626 0.115728 0.019873 0.993082
0.296093 -0.444949 0.112142 0.018277 0.007157 0.999807
0.271531 -0.679164 -0.162828 0.000000 0.000000 -1.000000
0.033643 0.455933 0.065718 0.424535 0.124295 -0.896839
0.345967 -0.591187 0.150001 0.015424 0.001893 0.999879
-0.058039 0.510468 0.147140 -0.995758 0.024391 0.088722
-0.119128 -0.322400 0.150224 0.000000 0.000000 1.000000
-0.341390 -0.001871 0.011299 -0.977599 0.210474 0.000000
0.243186 -0.528955 -0.162828 -0.000000 0.000000 -1.000000
0.353788 -0.900821 -0.127895 0.657881 -0.752921 -0.017408
-0.013745 -0.611516 -0.162828 -0.000000 -0.000000 -1.000000
-0.012462 0.821800 0.085894 -0.000000 -0.000000 -1.000000
-0.093951 -0.561974 -0.162828 -0.000000 -0.000000 -1.000000
0.210132 -0.023336 0.150451 -0.000000 0.000000 1.000000
0.108855 -0.391464 0.150224 0.000000 -0.000000 1.000000
0.130535 0.192504 0.140768 0.234832 0.952501 0.193895
0.012677 -0.522203 -0.162828 -0.000000 0.000000 -1.000000
-0.061885 0.417883 0.145743 -0.999107 0.023859 -0.034859
0.222606 -0.042515 -0.162828 0.000000 -0.000000 -1.000000
0.111647 -0.217928 0.121855 0.000000 0.000000 1.000000
-0.395345 -0.865838 -0.043155 -0.658670 -0.752432 0.000000
0.385788 -0.874198 -0.059496 0.658680 -0.752423 0.000009
-0.082023 -0.363191 0.150224 0.000000 0.000000 1.000000
-0.005868 -1.000000 0.009352 -0.000000 -1.000000 0.000000
0.065600 -0.868833 0.150224 0.000000 0.000000 1.000000
0.225746 -0.088934 0.150224 -0.000000 0.000000 1.000000
0.408796 -0.680654 -0.161820 0.014922 -0.001957 -0.999887
-0.091814 -0.499651 -0.162828 -0.000000 -0.000000 -1.000000
0.005273 -0.973031 0.148216 0.000140 -0.134413 0.990925
-0.224577 -0.573848 -0.162828 -0.000000 0.000000 -1.000000
0.280058 -0.252918 0.148368 0.170737 -0.008278 0.985282
-0.382167 -0.578645 -0.162086 -0.015424 0.001893 -0.999879
-0.069687 0.208428 0.016316 -0.931443 0.350869 -0.096464
0.128641 -0.579137 0.150224 0.000000 0.000000 1.000000
0.039226 -0.999759 0.090051 0.000000 -0.999611 0.027877
-0.060736 0.836011 0.141190 0.953061 -0.030504 0.301238
-0.338177 -0.080519 -0.082859 -0.998297 -0.055563 -0.017769
-0.151065 -0.484439 -0.161675 0.000000 0.000000 -1.000000
-0.025466 0.347477 0.042176 0.000000 0.340050 -0.940407
0.018293 -0.215946 0.131021 0.000000 0.000000 1.000000
0.255698 0.113071 -0.160790 0.080612 0.085199 -0.993098
-0.345657 -0.362304 -0.128844 -0.900175 0.435155 -0.018039
-0.262712 0.113460 0.148091 -0.094655 0.087584 0.991650
-0.006295 0.258265 -0.029248 -0.000000 0.983842 -0.179039
0.321052 -0.154425 -0.079695 0.946300 -0.322777 -0.018228
-0.118229 -0.331886 0.150224 0.000000 0.000000 1.000000
0.009020 -0.789311 -0.162828 0.000000 0.000000 -1.000000
0.385653 -0.873371 -0.110190 0.658597 -0.752328 -0.015890
0.023831 0.906628 0.150816 0.953580 0.045089 0.297744
0.256037 -0.885296 0.149659 0.003080 -0.020412 0.999787
-0.320317 -0.153923 0.123705 -0.946250 -0.322360 0.026369
-0.267101 -0.751988 -0.162828 0.000000 0.000000 -1.000000
0.098235 -0.411460 0.150224 0.000000 -0.000000 1.000000
0.340589 -0.358359 0.121047 0.900002 0.435072 0.026626
-0.146222 -0.021141 -0.162828 0.000000 -0.000000 -1.000000
0.013401 0.891237 0.111576 -0.000000 0.000000 1.000000
0.273134 -0.055140 -0.162323 0.018780 0.000456 -0.999824
0.340710 -0.015987 0.015583 0.977600 0.210474 -0.000000
0.099814 0.175661 0.147208 0.031436 0.144852 0.988954
0.007619 0.340253 0.040048 0.000000 0.340050 -0.940407
0.067217 0.193036 0.161574 0.079373 -0.000310 0.996845
0.060018 -0.098958 0.145668 -0.208493 -0.975360 0.072129
-0.055955 -0.372917 0.150224 0.000000 -0.000000 1.000000
-0.326313 0.051665 0.061524 -0.977600 0.210474 0.000000
0.203186 -0.611096 -0.162828 0.000000 0.000000 -1.000000
-0.098215 -0.847073 -0.162828 0.000000 -0.000000 -1.000000
-0.007661 -0.306758 0.121856 0.000000 -0.000000 1.000000
-0.032914 -0.996479 -0.147299 -0.000256 -0.989228 -0.146379
-0.058916 -0.338468 -0.162828 0.000000 -0.000000 -1.000000
-0.295274 -0.489223 -0.162828 -0.000000 -0.000000 -1.000000
0.370253 -0.755467 0.149663 0.015489 -0.001535 0.999879
-0.149065 -0.080553 0.150224 -0.000000 0.000000 1.000000
-0.224703 -0.626690 0.150224 0.000000 0.000000 1.000000
-0.311697 -0.288772 -0.047813 -0.933899 0.357536 0.000000
0.134268 0.061825 0.150224 0.000000 0.000000 1.000000
-0.177879 -0.801450 -0.164012 0.000000 -0.000000 -1.000000
0.308939 -0.589917 0.150224 -0.000000 0.000000 1.000000
0.368800 -0.889024 0.083019 0.658499 -0.752216 0.023455
0.361886 -0.485730 0.149139 0.015332 0.007577 0.999854
-0.455286 -0.689470 -0.154349 -0.978397 -0.140471 -0.151678
-0.054110 0.504199 0.160850 -0.040638 0.000962 0.999173
-0.325386 -0.142460 -0.090686 -0.946457 -0.322830 0.000000
-0.111513 -0.997512 0.061771 -0.081207 -0.996697 -0.000000
0.300479 -0.566510 -0.154177 0.000000 -0.000000 -1.000000
0.100257 -0.907624 -0.162603 0.001268 -0.017389 -0.999848
0.003606 0.932120 0.177367 -0.008406 0.000020 0.999965
-0.397645 -0.470200 0.006094 -0.883143 0.469104 -0.000000
0.420542 -0.769261 -0.010342 0.893642 -0.448781 0.000000
0.250193 -0.027733 -0.162741 0.018780 0.000456 -0.999824
-0.084215 -0.441580 0.150253 -0.000000 0.000000 1.000000
-0.062818 -0.807107 0.150224 0.000000 -0.000000 1.000000
-0.436799 -0.781513 -0.156275 -0.884982 -0.444701 -0.138017
0.451043 -0.752360 -0.017939 0.989633 -0.143620 0.000000
0.287014 0.015353 -0.162615 0.018853 0.004626 -0.999812
-0.072211 0.219591 0.117379 -0.908647 0.416963 -0.022424
0.456206 -0.708418 0.122674 0.989273 -0.143188 0.028906
-0.243555 -0.758227 0.150224 0.000000 0.000000 1.000000
-0.083528 -0.963790 -0.161644 -0.000025 -0.017181 -0.999852
-0.172982 0.152817 -0.161063 -0.053324 0.158772 -0.985874
-0.101640 0.179386 -0.145840 -0.124471 0.981932 -0.142539
0.092512 -0.529680 -0.162828 0.000000 0.000000 -1.000000
-0.024183 -0.319012 -0.162828 0.000000 0.000000 -1.000000
0.303568 -0.247534 0.053796 0.998907 -0.046740 0.000000
-0.240022 -0.074113 -0.162828 -0.000000 -0.000000 -1.000000
0.404027 -0.482216 -0.051935 0.883143 0.469104 0.000000
-0.180129 -0.065760 0.150224 0.000000 0.000000 1.000000
0.000153 0.675705 0.158898 -0.000000 0.414028 0.910264
0.160923 -0.366148 -0.162828 0.000000 0.000000 -1.000000
0.095659 -0.116785 0.150224 0.000000 -0.000000 1.000000
-0.274469 -0.682279 0.150224 0.000000 -0.000000 1.000000
0.039926 -0.721954 0.158425 -0.000758 0.583037 0.812445
-0.233777 -0.738031 0.150224 0.000000 0.000000 1.000000
-0.198227 -0.984579 -0.054447 -0.236775 -0.971565 0.000000
-0.379686 -0.737482 0.149544 -0.015489 -0.001535 0.999879
0.402654 -0.774652 -0.161721 0.016224 -0.007514 -0.999840
0.331279 -0.324936 0.119181 0.900002 0.435072 0.026626
0.133732 -0.049658 -0.162828 -0.000000 -0.000000 -1.000000
-0.089151 0.853132 0.099342 -0.994517 -0.002790 -0.104535
0.138795 0.183750 -0.108247 0.125818 0.991445 -0.034749
-0.315094 -0.267035 0.060901 -0.933899 0.357536 0.000000
-0.433340 -0.748341 0.146816 -0.122615 -0.016080 0.992324
-0.023309 -0.520635 -0.158387 -0.000000 -0.000000 -1.000000
-0.114822 -0.578022 -0.162828 0.000000 0.000000 -1.000000
-0.177975 -0.533075 -0.162828 0.000000 0.000000 -1.000000
-0.402636 -0.821104 -0.159687 -0.144151 -0.066761 -0.987301
0.097802 0.187007 -0.140424 0.125690 0.982189 -0.139667
-0.053252 -0.063087 0.162828 0.000000 0.000000 1.000000
0.019485 0.939165 0.085890 -0.010372 -0.000298 -0.999946
-0.178388 0.012416 0.150224 -0.000000 0.000000 1.000000
0.243104 -0.598298 0.150224 -0.000000 0.000000 1.000000
-0.242022 0.153453 0.141157 -0.360799 0.912775 0.191482
0.080984 -0.032338 0.144287 0.000000 -0.000000 1.000000
0.448562 -0.737535 0.141908 0.968053 -0.138986 0.208699
-0.348016 -0.521114 0.137907 -0.015332 0.007578 0.999854
-0.297137 -0.927336 -0.159856 -0.093087 -0.151792 -0.984019
-0.319968 0.076590 -0.008802 -0.800612 0.599184 0.000000
0.315629 -0.374647 -0.161659 0.018277 0.008294 -0.999799
0.404413 -0.856089 0.079552 0.893642 -0.448781 0.000000
0.448971 -0.594132 0.127122 0.961828 0.165860 0.217661
0.354391 -0.389818 0.018632 0.900360 0.435145 0.000000
0.011142 0.182950 -0.162828 -0.000000 0.000000 -1.000000
0.460577 -0.687551 0.109107 0.989273 -0.143188 0.028906
-0.032697 0.150228 -0.162828 -0.000000 -0.000000 -1.000000
0.076109 0.075355 0.150224 0.000000 -0.000000 1.000000
0.016692 0.448525 0.161753 0.000091 0.000001 1.000000
-0.030232 -0.482907 -0.162828 -0.000000 0.000000 -1.000000
0.333556 -0.356742 -0.158144 0.140505 0.067971 -0.987744
0.172886 0.034818 0.150224 -0.000000 0.000000 1.000000
0.109332 -0.165596 0.129089 -0.967516 -0.252810 -0.000000
-0.342931 -0.394206 0.157847 -0.140504 0.067971 0.987744
0.018577 0.621590 0.161753 0.000097 0.000000 1.000000
-0.179733 -0.574771 -0.162828 0.000000 0.000000 -1.000000
0.143105 -0.284805 -0.162828 -0.000000 -0.000000 -1.000000
-0.062644 -0.880959 0.184859 0.000000 -0.000000 1.000000
0.196958 -0.295666 0.150224 -0.000000 0.000000 1.000000
0.250576 -0.687349 0.150224 -0.000000 0.000000 1.000000
-0.301637 -0.089818 -0.161732 -0.020543 -0.000844 -0.999789
-0.332827 -0.446665 0.136975 -0.018277 0.007157 0.999807
0.199360 -0.752388 0.150224 0.000000 0.000000 1.000000
0.286756 -0.928709 -0.162076 0.039230 -0.044431 -0.998242
0.208399 -0.824955 -0.162828 -0.000000 0.000000 -1.000000
-0.007552 0.623491 0.079418 0.000000 0.048589 -0.998819
0.063273 -1.000000 -0.035219 -0.000000 -1.000000 -0.000000
0.114943 -0.318591 -0.162828 0.000000 -0.000000 -1.000000
-0.209994 -0.980828 -0.113167 -0.236788 -0.971396 -0.017917
-0.034886 0.828752 0.085747 0.010989 -0.000147 -0.999940
-0.042676 0.886712 0.135782 -0.008593 0.001459 0.999962
0.078209 0.211861 0.144138 0.965491 0.223297 0.134037
-0.379441 -0.514823 -0.161695 -0.015332 0.007577 -0.999854
-0.032543 0.595072 0.126810 -0.999111 0.012237 -0.040349
0.088148 -0.471719 -0.162828 0.000000 0.000000 -1.000000
-0.016897 0.437374 0.060731 0.000000 0.132446 -0.991190
-0.175920 -0.988602 0.127698 -0.232465 -0.953659 0.191036
0.085423 -0.259186 0.121856 0.000000 0.000000 1.000000
0.461494 -0.680340 0.026208 0.989633 -0.143620 0.000000
-0.454675 -0.618773 -0.041629 -0.985417 0.170159 0.000000
0.032694 0.270712 0.162825 0.000086 0.000000 1.000000
0.315069 -0.003887 -0.159837 0.145909 0.031103 -0.988809
-0.177893 -0.577483 -0.162828 0.000000 0.000000 -1.000000
-0.028886 0.433581 0.122719 -0.994888 0.023271 0.098263
-0.159394 -0.858836 -0.162828 0.000000 0.000000 -1.000000
0.227601 -0.178959 0.150224 0.000000 0.000000 1.000000
0.249414 -0.807640 -0.162828 0.000000 0.000000 -1.000000
-0.061745 0.294720 0.076486 -0.975699 0.013379 -0.218707
-0.062143 0.337716 0.149663 -0.995979 0.018609 0.087634
-0.313542 -0.595171 -0.158068 -0.000000 -0.000000 -1.000000
-0.456646 -0.637434 -0.125667 -0.985257 0.169900 -0.020079
0.416375 -0.632505 0.084557 0.984967 0.170082 0.030199
0.143794 0.185973 0.087815 0.143749 0.989462 0.017329
0.211038 -0.236377 0.150224 0.000000 0.000000 1.000000
-0.248121 0.153732 -0.065262 -0.337588 0.940939 -0.025842
0.055991 0.676135 0.122282 0.959581 -0.279010 -0.036852
-0.163539 -0.629506 0.150224 0.000000 0.000000 1.000000
0.164758 0.062360 0.139800 -0.000000 0.000000 1.000000
-0.348470 -0.906423 -0.086393 -0.658587 -0.752336 -0.015899
-0.067342 0.230356 0.124463 -0.984865 0.171081 -0.027783
0.173244 -0.379461 0.150224 0.000000 0.000000 1.000000
0.023242 0.175872 0.154911 0.000117 0.000000 1.000000
-0.134642 0.187401 0.079439 -0.143767 0.989586 -0.007056
0.263139 0.148781 0.022974 0.354209 0.935140 -0.007062
0.115205 -0.692021 0.150224 0.000000 0.000000 1.000000
-0.263829 -0.004831 0.150256 -0.019406 0.004372 0.999802
-0.141534 -0.675754 -0.162828 0.000000 0.000000 -1.000000
-0.121564 -0.048514 -0.162828 0.000000 -0.000000 -1.000000
0.086637 0.035321 -0.162828 -0.000000 0.000000 -1.000000
0.332974 -0.682940 -0.162828 0.000000 0.000000 -1.000000
-0.044508 -0.998784 -0.128987 -0.000258 -0.999816 -0.019199
0.316388 -0.168919 -0.003404 0.946457 -0.322830 0.000000
0.019616 -0.620090 -0.162828 0.000000 -0.000000 -1.000000
0.313543 -0.934823 -0.100910 0.478963 -0.877665 -0.017280
-0.060705 0.390659 0.107377 -0.999107 0.023859 -0.034859
-0.041935 -0.095672 0.137798 0.208493 -0.975360 0.072129
0.142729 -0.753689 -0.162828 0.000000 -0.000000 -1.000000
0.161164 -0.540129 -0.162139 -0.000000 0.000000 -1.000000
-0.329622 0.035418 -0.066291 -0.977454 0.210443 -0.017234
0.196893 -0.842818 -0.170370 -0.000000 0.000000 -1.000000
0.368589 -0.653575 -0.162385 0.014658 0.002325 -0.999890
-0.343427 -0.912720 -0.050018 -0.658670 -0.752432 0.000000
0.117726 -0.178920 -0.162828 0.000000 -0.000000 -1.000000
0.130674 -0.431810 0.155459 0.000000 0.000000 1.000000
-0.260084 -0.345903 -0.162537 -0.021359 0.007752 -0.999742
0.458714 -0.677851 -0.143354 0.977578 -0.141495 -0.155953
-0.036857 -0.826258 0.150224 0.000000 -0.000000 1.000000
-0.125735 -0.971839 0.117741 -0.081133 -0.996316 0.027796
-0.373370 -0.423746 0.009346 -0.900360 0.435145 -0.000000
-0.304095 -0.041647 0.058112 -0.977600 0.210474 0.000000
0.143876 -0.307125 -0.162828 -0.000000 -0.000000 -1.000000
-0.018357 -0.697393 0.160606 0.000000 -0.000000 1.000000
0.184913 -0.936416 0.149396 0.004233 -0.019287 0.999805
0.123104 -0.566359 0.150224 0.000000 -0.000000 1.000000
-0.000735 0.259381 -0.023116 -0.000000 0.983842 -0.179039
0.300367 -0.364020 -0.174293 0.018277 0.008294 -0.999799
-0.026181 -0.091373 0.160199 0.208060 -0.978101 0.005381
-0.117387 -0.695306 -0.162828 0.000000 0.000000 -1.000000
-0.259120 -0.041133 0.149992 -0.020543 -0.000094 0.999789
0.194403 0.045579 -0.162828 -0.000000 0.000000 -1.000000
0.129010 -0.736220 0.160606 0.000000 -0.000000 1.000000
0.049705 0.826694 0.085391 -0.033173 -0.000897 -0.999449
-0.299596 -0.242858 -0.151367 -0.987206 -0.049229 -0.151658
-0.231013 -0.338711 -0.162828 -0.000000 0.000000 -1.000000
-0.318526 -0.162651 0.056331 -0.946457 -0.322830 0.000000
-0.180151 -0.950063 -0.161748 -0.004233 -0.019287 -0.999805
0.045372 -0.505498 -0.162828 0.000000 0.000000 -1.000000
-0.233798 -0.849638 0.150224 -0.000000 0.000000 1.000000
-0.144924 -0.059710 0.150224 0.000000 0.000000 1.000000
-0.213173 0.143873 0.148280 -0.058996 0.114024 0.991725
0.112032 -0.237600 0.130457 -0.972933 0.231088 0.000000
-0.224338 -0.493926 -0.125383 -0.000000 0.000000 -1.000000
0.455918 -0.625971 0.053195 0.985417 0.170159 0.000000
0.223397 0.157989 0.143999 0.026891 0.028882 0.999221
0.450430 -0.618116 -0.149155 0.973599 0.167191 -0.155411
-0.014257 0.543536 0.074742 -0.000000 0.129039 -0.991639
0.257482 -0.510427 -0.162828 -0.000000 0.000000 -1.000000
0.281231 -0.959747 -0.157872 0.100037 -0.182934 -0.978022
-0.216671 -0.835804 -0.162828 0.000000 0.000000 -1.000000
0.081590 0.913127 0.145610 0.968938 -0.003181 0.247285
-0.445646 -0.773985 0.055089 -0.893646 -0.448773 -0.000000
-0.292351 0.113999 0.083952 -0.804838 0.593064 0.022604
-0.120706 0.188849 0.115122 -0.143749 0.989462 0.017332
-0.150705 -0.751553 -0.162828 0.000000 0.000000 -1.000000
0.136998 -0.706614 0.150224 0.000000 0.000000 1.000000
0.366468 -0.701466 0.149814 0.014922 -0.001957 0.999887
-0.195325 0.175158 0.040344 -0.354162 0.935015 -0.017769
0.187801 -0.163785 -0.202739 0.000000 0.000000 -1.000000
0.303530 -0.235981 -0.095643 0.998727 -0.046732 -0.018971
-0.218846 -0.376893 0.142974 -0.021359 0.007752 0.999742
-0.278103 -0.750507 -0.162828 0.000000 0.000000 -1.000000
-0.123920 -0.995588 0.114026 -0.081133 -0.996316 0.027796
0.366818 -0.815674 -0.161994 0.016224 -0.007514 -0.999840
0.180962 -0.988787 -0.015571 0.236775 -0.971565 0.000000
-0.013513 -0.089177 0.140814 0.243187 -0.969980 -0.000000
0.136780 -0.717417 0.150224 0.000000 0.000000 1.000000
-0.205537 -0.981913 -0.113233 -0.236788 -0.971396 -0.017917
0.263892 -0.201110 0.149363 0.022767 -0.004282 0.999732
0.265060 -0.407983 0.150224 -0.000000 0.000000 1.000000
-0.071573 -0.314598 0.150230 0.000000 0.000000 1.000000
-0.256925 0.074778 -0.162093 -0.018254 0.033276 -0.999279
-0.323422 -0.320772 -0.089931 -0.933736 0.357473 -0.018711
-0.016217 0.500517 0.161753 -0.000093 0.000001 1.000000
-0.287388 0.028748 -0.143705 -0.968916 0.208093 -0.133786
-0.426817 -0.639247 0.148273 -0.121262 0.019231 0.992434
0.249076 -0.627935 -0.157593 0.000000 -0.000000 -1.000000
-0.346352 -0.723429 -0.162686 -0.015488 -0.001535 -0.999879
0.304822 -0.271482 0.119205 0.933713 0.357002 0.027027
-0.334464 -0.085356 0.139042 -0.976972 -0.058759 0.205116
-0.070093 -0.062725 -0.157232 0.000000 0.000000 -1.000000
0.241227 -0.572401 -0.162828 0.000000 -0.000000 -1.000000
-0.382632 -0.523955 -0.165854 -0.015332 0.007577 -0.999854
0.293996 -0.538760 -0.162828 -0.000000 0.000000 -1.000000
-0.411557 -0.839537 -0.135027 -0.885152 -0.444580 -0.137309
0.156549 -0.240919 -0.162828 0.000000 0.000000 -1.000000
0.184943 0.172943 -0.156349 0.313901 0.934651 -0.167013
-0.336179 -0.822906 0.149868 -0.018367 -0.006453 0.999811
-0.195351 -0.881685 -0.160806 0.000000 -0.000000 -1.000000
-0.304855 -0.220040 -0.035293 -0.998907 -0.046740 -0.000000
-0.161474 -0.486481 -0.162828 0.000000 0.000000 -1.000000
0.159677 -0.460476 0.150224 0.000000 -0.000000 1.000000
0.082031 0.029074 -0.153663 -0.000000 0.000000 -1.000000
0.036767 0.266884 0.010109 0.604308 0.423844 -0.674662
-0.339919 -0.054872 0.072661 -0.998455 -0.055572 -0.000000
0.050990 -0.166596 -0.162828 -0.000000 0.000000 -1.000000
0.083358 0.917522 0.139603 0.967010 -0.004740 0.254696
-0.336820 0.002079 0.010604 -0.977599 0.210474 0.000000
0.310799 -0.187519 -0.109135 0.970017 -0.242336 -0.018425
-0.432938 -0.799291 -0.016087 -0.893646 -0.448773 -0.000000
-0.332421 -0.097239 -0.071007 -0.946300 -0.322777 -0.018228
0.304437 -0.271248 -0.091607 0.933897 0.357072 -0.018311
-0.318989 -0.090091 -0.159986 -0.156015 -0.006409 -0.987734
-0.025081 0.274601 0.007478 -0.000000 0.554430 -0.832230
-0.012770 -0.466945 -0.123165 0.000000 0.000000 -1.000000
-0.010719 0.438786 0.060919 0.000000 0.132446 -0.991190
-0.291047 -0.637246 -0.199753 -0.000000 -0.000000 -1.000000
0.089331 -0.306276 -0.162828 -0.000000 -0.000000 -1.000000
0.114637 0.189778 -0.022245 0.131375 0.991169 -0.018002
0.308395 -0.189313 -0.142458 0.960357 -0.239923 -0.141958
0.166179 -0.992695 -0.067146 0.236737 -0.971410 -0.017852
0.055938 0.671601 0.145792 0.998326 0.010664 0.056853
0.058630 -1.031845 -0.158021 0.000140 -0.134413 -0.990925
0.330972 -0.124985 0.095513 0.946114 -0.322714 0.026906
0.198600 0.119016 -0.161647 0.023513 0.029857 -0.999278
0.071139 0.184296 -0.159281 0.126636 0.181519 -0.975200
-0.343756 -0.892279 0.147451 -0.110239 -0.143647 0.983470
-0.003917 0.953832 0.151186 -0.000000 0.000000 1.000000
0.041510 -0.341582 0.149947 0.000000 0.000000 1.000000
-0.231412 -0.225554 0.150038 -0.022992 -0.000878 0.999735
-0.003503 -0.896280 0.178545 -0.000015 -0.017193 0.999852
0.183693 -0.538457 -0.162828 -0.000000 0.000000 -1.000000
-0.080636 0.754243 0.105111 -0.991142 -0.032411 -0.128791
0.122835 -0.064719 -0.162828 -0.000000 -0.000000 -1.000000
0.458344 -0.696694 -0.103293 0.989432 -0.143590 -0.020145
0.157030 -0.776928 -0.162828 0.000000 -0.000000 -1.000000
-0.000234 -0.316337 0.143636 0.309131 0.951020 0.000000
-0.364192 -0.404755 -0.051470 -0.900360 0.435145 0.000000
0.309592 -0.655568 0.165027 -0.000000 0.000000 1.000000
0.211165 -0.027097 0.150224 -0.000000 0.000000 1.000000
0.038897 -0.962514 0.149062 0.000025 -0.017181 0.999852
0.095822 -0.814786 0.150224 0.000000 0.000000 1.000000
-0.334038 -0.290198 -0.139255 -0.924163 0.353350 -0.145143
0.003321 -0.537597 0.150224 -0.000000 0.000000 1.000000
0.387247 -0.871404 -0.084583 0.658597 -0.752328 -0.015890
0.445913 -0.572021 -0.098823 0.985257 0.169900 -0.020079
0.326518 -0.350320 -0.159012 0.159781 0.072508 -0.984486
0.328545 0.040514 -0.027123 0.977599 0.210474 -0.000000
-0.048042 -0.649062 0.150224 0.000000 0.000000 1.000000
0.131718 -0.620655 0.150224 0.000000 -0.000000 1.000000
0.242991 -0.053827 -0.162829 0.000000 0.000000 -1.000000
-0.334952 -0.113996 0.087372 -0.946114 -0.322714 0.026906
-0.331559 -0.278522 -0.107151 -0.933897 0.357072 -0.018311
-0.270828 -0.839724 -0.162828 0.000000 -0.000000 -1.000000
0.003401 -0.314878 0.131505 -0.309131 0.951020 0.000000
0.301070 -0.131394 0.148955 0.165084 -0.052361 0.984889
0.324305 0.087603 0.030349 0.977600 0.210474 -0.000000
-0.388395 -0.452787 -0.020867 -0.883143 0.469104 -0.000000
0.090968 -0.084795 0.150106 0.000000 0.000000 1.000000
0.339546 -0.010583 0.078769 0.977600 0.210474 0.000000
0.456660 -0.683466 -0.097836 0.989432 -0.143590 -0.020145
-0.134450 -0.312615 -0.162828 -0.000000 0.000000 -1.000000
0.059286 0.878188 0.141422 -0.951329 -0.031648 0.306549
0.151543 -0.469374 0.150224 0.000000 -0.000000 1.000000
0.165568 -0.789602 0.150184 0.000000 0.000000 1.000000
0.013473 -0.917357 0.149839 0.000025 -0.017181 0.999852
-0.379670 -0.438181 0.125618 -0.882971 0.468713 0.025888
-0.353040 -0.770753 0.149906 -0.015489 -0.001535 0.999879
0.105608 0.003309 0.150224 0.000000 0.000000 1.000000
-0.127563 0.137212 0.149364 -0.002635 0.018115 0.999832
-0.179565 -0.970435 -0.133593 -0.234540 -0.962175 -0.138600
0.368213 -0.581297 0.149639 0.015424 0.001893 0.999879
0.241199 -0.280809 0.149879 0.022992 0.006556 0.999714
-0.282424 -0.493996 0.150224 -0.000000 -0.000000 1.000000
0.287105 -0.087741 0.150039 0.020543 -0.000094 0.999789
-0.379099 -0.435286 0.005180 -0.883143 0.469104 -0.000000
-0.343135 -0.361186 0.008238 -0.900360 0.435145 -0.000000
-0.036311 0.431647 0.161622 -0.039627 0.000528 0.999214
-0.332478 -0.904545 -0.159623 -0.110239 -0.143647 -0.983470
-0.315156 -0.170064 0.111599 -0.946250 -0.322360 0.026369
-0.257808 -0.047299 -0.162607 -0.018780 0.000456 -0.999824
0.317992 -0.161124 0.119123 0.946250 -0.322360 0.026368
-0.317074 -0.939250 0.038327 -0.478790 -0.877930 -0.000000
-0.225256 0.162158 -0.057478 -0.337578 0.940913 -0.026892
0.071613 -0.576803 0.150224 -0.000000 0.000000 1.000000
0.339330 -0.353328 -0.065527 0.900216 0.435076 -0.017878
0.038759 -0.425117 0.150224 0.000000 0.000000 1.000000
-0.223784 0.163655 -0.017437 -0.354209 0.935140 -0.007062
-0.081427 -0.393086 -0.162828 0.000000 -0.000000 -1.000000
0.246044 0.155717 0.096869 0.366822 0.929968 0.024520
-0.067460 -0.634027 0.150224 0.000000 0.000000 1.000000
0.206266 0.170898 0.034232 0.354162 0.935015 -0.017769
-0.290786 -0.691596 0.112386 0.000000 -0.000000 1.000000
-0.220242 0.074776 0.150224 -0.000000 0.000000 1.000000
-0.443432 -0.778381 -0.013563 -0.893646 -0.448773 -0.000000
0.330429 -0.921248 -0.127240 0.657881 -0.752921 -0.017408
0.356756 -0.864994 0.149171 0.026517 -0.048461 0.998473
0.436506 -0.656213 0.147468 0.115728 0.019873 0.993082
0.002457 0.966125 0.086037 0.000000 -0.000000 -1.000000
-0.255374 -0.880864 -0.162828 0.000000 0.000000 -1.000000
0.256539 -0.370463 0.150224 -0.000000 0.000000 1.000000
-0.092443 -0.177477 0.121856 0.000000 -0.000000 1.000000
-0.456830 -0.634728 0.102400 -0.984967 0.170082 0.030199
0.065463 0.232023 0.071777 0.974412 0.170190 -0.146825
-0.246290 -0.554886 0.150243 -0.000000 -0.000000 1.000000
0.452025 -0.745593 -0.013027 0.989633 -0.143620 0.000000
0.169694 -0.527391 0.151826 0.000000 0.000000 1.000000
-0.336424 -0.076511 0.132131 -0.980176 -0.055640 0.190158
0.339102 -0.114987 -0.046992 0.946457 -0.322830 0.000000
0.080009 -0.499509 0.150224 -0.000000 0.000000 1.000000
0.008068 0.894473 0.085918 -0.000000 0.000000 -1.000000
-0.018294 0.783820 0.151186 0.000000 0.000000 1.000000
-0.158358 0.185532 0.148080 -0.021001 0.144367 0.989301
0.162908 0.129269 -0.161980 0.002260 0.018479 -0.999827
0.317398 0.065911 0.097101 0.977282 0.210406 0.025466
-0.318052 -0.337631 -0.159135 -0.159788 0.072509 -0.984485
-0.318301 -0.385257 -0.029310 -0.900360 0.435145 -0.000000
-0.242446 -0.928366 0.149312 -0.003080 -0.020412 0.999787
-0.335297 -0.863788 -0.162099 -0.018367 -0.006453 -0.999811
0.197913 0.066082 -0.162828 -0.000000 0.000000 -1.000000
0.145701 0.050911 0.150224 0.000000 0.000000 1.000000
-0.453216 -0.610324 -0.033785 -0.985417 0.170159 0.000000
0.094682 0.005851 0.150220 0.000000 0.000000 1.000000
-0.045349 0.117230 -0.162828 -0.000000 -0.000000 -1.000000
-0.100681 -0.078443 -0.162828 0.000000 0.000000 -1.000000
0.146286 -0.206088 -0.162828 0.000000 -0.000000 -1.000000
-0.003912 -0.506919 0.150224 -0.000000 0.000000 1.000000
-0.164289 -0.641126 -0.162828 0.000000 0.000000 -1.000000
-0.238350 -0.190642 0.149989 -0.022767 -0.004282 0.999732
0.057884 -0.876345 0.150224 0.000000 0.000000 1.000000
0.059116 0.862192 0.082687 -0.034592 -0.000367 -0.999401
-0.044189 -0.050741 -0.162828 0.000000 -0.000000 -1.000000
-0.339008 -0.071231 0.031880 -0.998455 -0.055572 0.000000
0.333489 -0.604375 0.150219 0.015424 0.001893 0.999879
0.298811 0.138490 0.006062 0.800570 0.599153 -0.010141
-0.039288 0.402097 0.061521 -0.446463 0.118603 -0.886907
0.001213 0.403995 0.056410 -0.000000 0.127593 -0.991827
0.186326 -0.690621 0.150224 0.000000 0.000000 1.000000
-0.119617 -0.517161 -0.157593 0.000000 0.000000 -1.000000
0.268437 -0.846328 0.150224 0.000000 0.000000 1.000000
0.151916 -0.304370 -0.162828 -0.000000 -0.000000 -1.000000
0.038503 -0.747595 0.160606 0.000000 -0.000000 1.000000
0.383465 -0.803938 -0.161812 0.016224 -0.007514 -0.999840
-0.067793 -0.999833 -0.074033 -0.000000 -0.999822 -0.018887
0.054105 -0.310367 0.143492 -0.309131 0.951020 0.000000
0.209550 -0.559466 0.150224 0.000000 0.000000 1.000000
-0.272290 -0.246134 0.000552 -0.998907 -0.046740 -0.000000
0.243800 -0.278685 0.149805 0.022992 0.006556 0.999714
-0.042314 0.053078 -0.162828 -0.000000 -0.000000 -1.000000
-0.057587 0.567993 0.133725 -0.999111 0.012237 -0.040349
-0.352654 -0.910487 0.126959 -0.648346 -0.742009 0.170497
-0.449207 -0.765009 0.011716 -0.989633 -0.143620 0.000000
0.022638 0.443296 0.140230 0.000091 0.000001 1.000000
0.266606 0.031561 -0.162181 0.016597 0.005671 -0.999846
0.253970 0.152040 -0.028677 0.354209 0.935140 -0.007062
-0.248595 -0.755025 -0.162828 0.000000 0.000000 -1.000000
-0.009319 -0.569583 0.110776 -0.000000 0.000000 1.000000
-0.360450 -0.896385 -0.002158 -0.658670 -0.752432 0.000000
0.012970 -0.834002 0.153860 0.000000 0.000000 1.000000
0.400555 -0.475679 -0.001361 0.883143 0.469104 0.000000
0.220588 -0.800375 -0.187413 0.000000 0.000000 -1.000000
-0.350817 -0.379658 -0.127655 -0.900175 0.435155 -0.018039
-0.054101 0.081535 -0.162828 -0.000000 -0.000000 -1.000000
0.103781 0.166981 0.148353 0.031436 0.144852 0.988954
-0.066030 -0.661092 -0.162832 -0.000000 -0.000000 -1.000000
-0.163064 -0.409724 0.150224 0.000000 0.000000 1.000000
-0.354521 -0.069847 0.067939 -0.998455 -0.055572 -0.000000
0.033248 0.021252 -0.162828 -0.000000 0.000000 -1.000000
-0.181054 0.163092 0.148363 -0.021001 0.144367 0.989301
-0.278767 -0.583626 0.150224 0.000000 0.000000 1.000000
0.341122 0.088447 -0.086177 0.791919 0.610367 -0.017763
0.310544 -0.287838 0.107467 0.933713 0.357002 0.027027
0.176552 -0.170255 -0.162828 0.000000 0.000000 -1.000000
0.125730 -0.108919 -0.162828 -0.000000 0.000000 -1.000000
-0.273481 -0.589231 0.145752 0.000000 0.000000 1.000000
0.041055 0.308135 0.162453 0.045989 0.012200 0.998868
-0.301613 -0.033323 -0.148337 -0.988864 -0.056146 -0.137823
0.318988 -0.864803 0.149913 0.018367 -0.006453 0.999811
0.209953 -0.401162 -0.162831 0.000000 0.000000 -1.000000
0.256671 -0.576778 -0.162828 0.000000 -0.000000 -1.000000
0.050219 -0.548040 0.150224 -0.000000 0.000000 1.000000
-0.149025 -0.729582 0.160606 -0.000000 0.000000 1.000000
0.467813 -0.527982 0.097818 0.882828 0.468937 0.026714
0.392976 -0.572342 0.149240 0.015424 0.001893 0.999879
0.062278 0.434286 0.130656 0.999042 0.024868 -0.036005
-0.461668 -0.679140 -0.031022 -0.989633 -0.143620 -0.000000
0.288542 -0.727409 -0.165416 0.000000 0.000000 -1.000000
0.063518 -0.445017 0.150224 -0.000000 0.000000 1.000000
0.411752 -0.610728 -0.148471 0.014658 0.002325 -0.999890
-0.374610 -0.524302 -0.161841 -0.015332 0.007577 -0.999854
-0.343218 -0.911073 0.076945 -0.658489 -0.752224 0.023469
-0.462685 -0.672133 -0.036365 -0.989633 -0.143620 -0.000000
-0.280619 0.115226 0.160901 -0.142304 0.105000 0.984238
0.413389 -0.838217 -0.016940 0.893642 -0.448781 -0.000000
0.154820 -0.405663 0.169461 0.000000 0.000000 1.000000
0.249192 -0.613382 0.150224 -0.000000 0.000000 1.000000
-0.315725 -0.186977 -0.006127 -0.970224 -0.242209 0.000000
-0.421484 -0.515080 0.056959 -0.883143 0.469104 0.000000
0.354565 -0.385286 -0.073650 0.900216 0.435076 -0.017878
-0.212820 -0.225309 0.150224 0.000000 -0.000000 1.000000
0.310818 -0.794857 0.150256 0.000000 0.000000 1.000000
-0.012400 -0.088482 0.149644 0.208493 -0.975360 0.072129
0.074880 -0.701710 -0.150164 0.000000 0.000000 -1.000000
-0.327374 -0.925103 -0.075915 -0.657881 -0.752921 -0.017396
-0.079539 0.710697 0.148002 -0.982056 -0.041707 0.183918
0.191527 -0.725002 -0.162828 -0.000000 0.000000 -1.000000
-0.451187 -0.597810 -0.004802 -0.985417 0.170159 -0.000000
0.132776 -0.274714 0.150224 -0.000000 -0.000000 1.000000
-0.190225 -0.024567 0.151483 0.000000 0.000000 1.000000
-0.038929 0.625868 0.084334 -0.356402 0.043161 -0.933335
-0.461530 -0.676162 -0.107491 -0.985210 0.170124 -0.020461
-0.055119 0.293513 0.161882 -0.045995 0.000209 0.998942
0.312140 0.076131 -0.004160 0.800612 0.599184 -0.000000
0.068037 0.927504 0.149786 0.101215 0.002907 0.994860
0.080730 -0.507603 0.150224 -0.000000 0.000000 1.000000
0.022364 -0.287551 0.121856 0.000000 -0.000000 1.000000
0.385124 -0.851147 -0.160294 0.144151 -0.066761 -0.987301
0.067771 -0.350214 0.150224 0.000000 0.000000 1.000000
0.019293 0.529528 0.072920 0.000000 0.129039 -0.991639
0.035890 -0.026931 -0.162828 0.000000 0.000000 -1.000000
0.282396 -0.947812 -0.149178 0.475454 -0.869440 -0.134231
-0.029230 -0.723751 0.159704 0.000758 0.583037 0.812445
0.426495 -0.814081 -0.076846 0.893502 -0.448710 -0.017698
-0.354145 -0.901904 0.002176 -0.658670 -0.752432 0.000000
-0.157347 0.183354 0.119721 -0.146058 0.989049 0.021174
0.341474 -0.026936 -0.042824 0.998455 -0.055572 0.000000
-0.093386 -0.276350 0.122626 0.758991 0.651102 0.000000
0.197713 -0.680314 0.150224 0.000000 0.000000 1.000000
0.032570 -0.065733 0.162828 0.000000 0.000000 1.000000
0.057936 0.232988 -0.003669 0.951638 0.291936 -0.095698
-0.057530 -0.507577 0.150224 0.000000 -0.000000 1.000000
-0.259088 -0.965013 -0.002840 -0.478790 -0.877930 0.000000
0.336710 -0.104948 0.096370 0.997991 -0.056651 0.028381
-0.229542 -0.532220 -0.162828 -0.000000 0.000000 -1.000000
0.248690 -0.948935 0.006652 0.478790 -0.877930 -0.000000
0.300700 -0.198184 0.145779 0.165169 -0.041378 0.985397
0.376494 -0.347781 0.040612 0.900360 0.435145 -0.000000
-0.261002 -0.963969 -0.033682 -0.478790 -0.877930 0.000000
-0.322008 -0.484894 -0.162828 -0.000000 -0.000000 -1.000000
-0.022068 -0.430606 0.150224 0.000000 -0.000000 1.000000
-0.314529 -0.173488 0.066956 -0.970224 -0.242209 -0.000000
0.255164 -0.966372 -0.105742 0.478712 -0.877809 -0.016906
-0.173361 -0.685395 0.159184 -0.994805 -0.057387 -0.084085
0.373262 -0.493154 0.149021 0.015332 0.007577 0.999854
0.384351 -0.514895 -0.074054 0.882998 0.469027 -0.018099
0.356731 -0.621510 0.149893 0.015424 0.001893 0.999879
0.163710 0.188367 -0.120086 0.131419 0.990925 -0.028239
-0.321276 -0.129947 0.145763 -0.155800 -0.052871 0.986373
-0.073607 0.891076 0.084715 0.023708 0.000109 -0.999719
-0.061958 0.842626 0.145729 0.953061 -0.030504 0.301238
-0.210229 0.162743 -0.143927 -0.319862 0.935937 -0.147344
-0.346571 -0.368296 -0.060981 -0.900360 0.435145 0.000000
0.052298 0.389296 0.069969 0.962427 0.047457 -0.267363
0.159752 -0.949159 -0.161806 0.000857 -0.017846 -0.999840
-0.458657 -0.696199 -0.062472 -0.989633 -0.143620 0.000000
-0.441703 -0.659635 -0.159535 -0.115728 0.019873 -0.993082
-0.313888 -0.355764 -0.161244 -0.159788 0.072509 -0.984485
0.205420 -0.397180 -0.162828 0.000000 0.000000 -1.000000
0.187632 -0.047190 -0.162828 0.000000 -0.000000 -1.000000
0.056468 0.541771 0.159495 0.995800 0.023563 0.088470
0.055679 -0.608762 -0.161305 0.000000 -0.000000 -1.000000
-0.452028 -0.603447 0.004370 -0.985417 0.170159 -0.000000
0.453990 -0.757470 -0.027890 0.989633 -0.143620 0.000000
0.098208 -0.035052 0.150224 0.000000 -0.000000 1.000000
0.309626 -0.173956 0.107838 0.969870 -0.242120 0.027027
-0.071628 -0.766214 -0.162828 0.000000 0.000000 -1.000000
0.238772 -0.499319 -0.151287 -0.000000 0.000000 -1.000000
-0.039697 0.195515 -0.157303 -0.868781 0.387987 -0.307710
0.339578 -0.355152 -0.089021 0.900175 0.435155 -0.018039
-0.007064 -0.256829 -0.162828 0.000000 0.000000 -1.000000
0.252680 0.116514 -0.160667 0.080612 0.085199 -0.993098
0.020049 0.480179 0.161753 0.000093 0.000000 1.000000
0.261499 0.149753 0.030846 0.363357 0.931639 -0.004563
0.295154 -0.944168 -0.125391 0.478963 -0.877665 -0.017280
0.076978 -0.181309 -0.162828 0.000000 0.000000 -1.000000
0.067414 0.146766 0.152946 0.996482 -0.026786 0.079412
0.121817 -0.563618 -0.162370 0.000000 -0.000000 -1.000000
0.153079 -0.419809 0.150224 0.000000 0.000000 1.000000
-0.018696 0.922020 0.151186 0.000000 -0.000000 1.000000
0.257562 -0.052161 0.150023 0.020543 -0.000094 0.999789
-0.202231 0.164531 -0.149001 -0.313904 0.934650 -0.167013
-0.171041 -0.176753 -0.162828 0.000000 -0.000000 -1.000000
0.328697 -0.070319 0.145013 0.149656 -0.009001 0.988697
0.432160 -0.793001 0.138878 0.877461 -0.440717 0.189288
-0.202455 -0.006994 0.150224 0.000000 -0.000000 1.000000
-0.262611 -0.933310 0.149045 -0.039230 -0.044431 0.998242
0.233277 -0.936499 -0.031007 0.236775 -0.971565 0.000000
0.127407 -0.620552 0.150224 0.000000 -0.000000 1.000000
-0.334762 -0.076174 0.140253 -0.976972 -0.058759 0.205116
0.119767 -0.583368 -0.162828 0.000000 -0.000000 -1.000000
-0.457378 -0.765104 0.072746 -0.989633 -0.143620 0.000000
-0.059413 0.444098 0.107098 -0.999042 0.024868 -0.036005
0.340634 -0.042020 0.001716 0.998455 -0.055572 -0.000000
-0.413639 -0.502822 0.126074 -0.882971 0.468713 0.025888
-0.069236 -0.997511 -0.140260 -0.001027 -0.988871 -0.148769
0.451249 -0.746063 -0.100483 0.989497 -0.143220 -0.019584
-0.407213 -0.784156 -0.161929 -0.015488 -0.001535 -0.999879
0.311874 -0.414073 -0.162054 0.018277 0.008294 -0.999799
-0.034028 0.272039 0.162962 -0.000086 0.000000 1.000000
-0.378054 -0.847570 0.148882 -0.144150 -0.066761 0.987301
0.089098 0.789000 0.133490 0.994621 -0.003852 -0.103506
-0.063179 0.278234 0.112727 -0.999558 0.008125 -0.028585
0.027359 0.234728 -0.164341 0.702847 0.583936 -0.406232
0.434473 -0.796234 0.012902 0.893642 -0.448781 -0.000000
-0.335956 -0.241960 -0.074973 -0.933897 0.357072 -0.018311
-0.070063 0.197153 -0.043437 -0.231282 0.972176 -0.037175
0.003227 -0.015288 -0.189186 0.000000 0.000000 -1.000000
0.299525 -0.201476 -0.158441 0.165169 -0.041378 -0.985397
0.196268 -0.292035 -0.123358 -0.000000 0.000000 -1.000000
0.045151 -0.272175 -0.162828 0.000000 0.000000 -1.000000
0.234999 -0.805366 0.150224 0.000000 0.000000 1.000000
-0.234420 -0.167804 -0.162786 -0.021947 -0.005576 -0.999744
-0.056770 0.139905 0.162816 -0.000234 -0.000074 1.000000
-0.417055 -0.830919 0.046945 -0.893646 -0.448773 -0.000000
0.344445 -0.365332 -0.100028 0.900175 0.435155 -0.018039
0.093451 -0.691267 0.150224 0.000000 0.000000 1.000000
0.117292 -0.719875 -0.162827 0.000000 -0.000000 -1.000000
0.185081 -0.661725 0.150224 0.000000 0.000000 1.000000
0.023428 0.931405 0.151122 0.007395 0.000457 0.999973
0.053540 0.595363 0.102992 0.939583 0.019139 -0.341786
0.171729 -0.169865 -0.162828 0.000000 0.000000 -1.000000
0.136040 -0.438423 0.150224 0.000000 -0.000000 1.000000
0.258946 -0.548150 -0.162829 -0.000000 0.000000 -1.000000
-0.329999 -0.922044 -0.108992 -0.657881 -0.752921 -0.017396
-0.151195 -0.328040 0.150224 0.000000 0.000000 1.000000
-0.013195 0.767919 0.151186 -0.000000 0.000000 1.000000
-0.208516 -0.089817 -0.154672 -0.000000 -0.000000 -1.000000
-0.005901 0.239229 0.162827 -0.000086 0.000000 1.000000
