ply
format ascii 1.0
element vertex 825
property float x
property float y
property float z
property float nx
property float ny
property float nz
end_header
-0.336771 -0.094874 -0.092784 0.998508 -0.053141 -0.012561
0.038924 -0.519767 0.150244 0.000483 -0.000122 1.000000
-0.021261 -0.071946 0.125330 -0.297966 -0.647288 -0.701595
0.394126 -0.745463 -0.161894 -0.005193 0.010993 0.999926
-0.458921 -0.694250 0.095666 0.965371 0.250548 -0.072696
-0.045389 0.239583 -0.025664 0.878037 -0.416746 -0.235317
-0.445506 -0.720089 0.126594 0.839617 0.531916 -0.110037
-0.180432 -0.119793 -0.162823 -0.038502 0.010769 0.999200
0.339812 -0.853199 -0.142260 -0.658257 -0.552918 -0.510862
-0.184174 -0.509799 -0.162574 0.243257 -0.138332 -0.960047
-0.218379 0.156332 0.150553 0.546915 0.798398 -0.251883
0.169473 -0.807390 0.150545 0.133314 -0.251875 -0.958534
-0.022699 0.930028 0.159664 0.416921 -0.812199 -0.408056
0.451970 -0.635829 -0.158251 -0.664402 -0.332085 0.669544
-0.013884 0.295477 0.162827 0.003621 0.006056 0.999975
0.060487 0.419644 0.108135 0.996237 0.047438 -0.072542
0.141000 -0.194508 -0.162437 -0.515837 0.146828 -0.844011
0.101852 -0.263030 0.131273 -0.300105 0.946472 0.118858
-0.298987 0.124089 0.097679 -0.295337 0.687891 -0.663010
-0.058309 -0.338518 -0.142892 0.984151 0.080196 0.158161
0.330493 -0.164908 0.067618 0.758969 -0.238006 0.606068
-0.273476 0.155650 0.074557 -0.144472 0.968643 0.202134
-0.380209 -0.790833 0.155693 -0.000486 0.093792 0.995592
0.067234 0.007585 -0.162612 -0.016249 -0.042275 0.998974
-0.205800 0.024694 -0.161126 -0.003678 0.014079 0.999894
0.139900 -0.615782 -0.161745 0.865997 0.312675 0.390236
0.338589 -0.026434 0.135664 0.842078 -0.317517 0.435991
-0.346083 -0.654346 -0.143725 -0.443998 -0.737091 -0.509473
-0.161225 -0.403955 -0.157178 0.229858 -0.561452 0.794945
-0.041936 0.059323 0.163040 -0.057587 -0.312547 0.948155
0.365599 -0.900060 0.038990 -0.728442 0.681488 -0.070325
-0.287240 -0.206779 -0.157423 0.163532 0.193028 0.967470
0.262977 -0.963413 -0.082568 0.492639 -0.842482 -0.218019
0.038437 -0.910043 -0.161763 -0.023186 0.145144 0.989139
0.029232 0.097825 0.162931 0.107959 -0.034071 0.993572
-0.298800 -0.773677 0.151307 -0.009006 -0.170927 0.985242
-0.108753 0.044004 0.156524 0.469039 -0.463500 0.751778
-0.013294 0.486893 0.162837 0.575885 -0.064345 0.814995
-0.326228 -0.140017 0.068349 0.946023 0.324087 -0.002937
-0.250784 0.010652 -0.162185 -0.015165 0.175998 0.984274
-0.335603 -0.337238 -0.125961 0.847697 -0.461765 0.261119
-0.160148 -0.435321 0.161025 -0.444073 -0.000870 0.895990
-0.204767 -0.102188 -0.143857 0.533543 -0.833857 0.141476
-0.146737 -0.671206 0.150226 -0.001130 0.002441 0.999997
0.001631 -0.742582 -0.142884 0.815680 0.553889 0.166953
0.065324 0.676312 0.180993 0.958847 0.046378 -0.280110
0.397836 -0.464162 -0.052246 0.916840 0.398454 -0.025281
-0.334947 -0.739696 0.150653 -0.014417 0.004607 0.999885
0.345894 -0.612357 -0.143518 -0.343127 0.922847 0.174979
0.101936 0.097267 0.170134 0.388837 0.905863 -0.167981
-0.163948 -0.220539 -0.162667 0.003734 -0.022778 0.999734
0.291673 -0.285956 0.169072 0.758648 0.646230 -0.082703
0.145572 0.124980 -0.161938 0.104969 -0.127073 0.986323
0.290684 -0.914237 0.166262 -0.822038 0.125395 0.555454
-0.283634 -0.249461 0.054274 0.793695 0.462647 0.394977
-0.126836 -0.219046 0.155225 0.375966 0.488439 0.787449
0.296441 -0.944689 0.025074 0.489403 -0.869512 -0.066576
0.422064 -0.510379 0.149455 -0.263033 -0.367132 0.892204
-0.022002 0.832512 0.088400 0.534853 0.128392 0.835133
0.070008 0.952538 0.085143 -0.243334 0.053560 0.968463
0.089847 -0.674323 -0.162346 0.052189 -0.186754 0.981020
-0.120011 -0.700429 0.150686 0.213258 -0.060407 -0.975127
-0.352501 -0.889545 -0.038024 0.778371 0.620123 -0.097902
0.040265 -0.219363 0.121901 -0.547217 -0.509059 -0.664389
-0.450464 -0.648175 -0.146842 0.993477 0.112451 0.018944
-0.433263 -0.784185 -0.021362 0.870803 0.491599 -0.005648
0.246142 -0.968122 -0.098287 0.091720 0.995732 0.010205
-0.449905 -0.582877 -0.001707 0.618618 0.781181 0.084078
-0.008400 -0.477392 0.154939 0.889642 -0.280250 0.360552
0.062767 -0.900769 -0.149448 -0.057366 -0.998218 -0.016460
-0.240672 -0.111679 0.168824 -0.593693 0.473391 -0.650715
-0.314919 -0.519996 -0.162075 0.038781 -0.059237 -0.997490
-0.011266 0.889594 0.151216 0.044726 0.332143 0.942168
-0.388277 -0.445775 -0.002950 0.914533 -0.403724 0.025226
-0.448338 -0.620808 -0.087157 -0.681356 0.730881 -0.039583
0.067203 -0.934247 -0.161836 -0.673894 -0.099945 0.732037
0.098250 -0.982596 -0.014484 0.428389 0.284291 -0.857708
-0.063699 0.823684 0.149319 -0.546605 -0.344272 -0.763348
0.199825 -0.987784 0.067610 0.559879 -0.779658 -0.280480
-0.261255 -0.388584 -0.162798 -0.002983 -0.002655 0.999992
0.032212 0.704278 0.083685 -0.338155 -0.270410 0.901404
-0.009206 -0.772742 0.155874 0.235020 -0.177478 0.955650
0.450745 -0.773920 0.048047 0.950656 -0.091585 0.296421
0.247724 -0.336580 0.150130 0.429723 -0.385569 0.816501
-0.356682 -0.736021 -0.159014 0.092662 -0.026989 0.995332
0.263183 -0.447603 0.150349 0.002233 0.000595 0.999997
-0.333905 -0.464133 -0.156466 0.663670 -0.219246 -0.715173
-0.074528 -0.059873 0.151008 -0.549190 -0.385942 0.741242
-0.106247 -0.111996 0.161507 -0.158506 0.118316 0.980244
-0.230939 -0.598681 -0.160759 -0.039149 0.002074 -0.999231
0.359382 -0.396616 0.120349 0.992631 0.012569 0.120523
0.137906 -0.011149 -0.162827 0.000047 -0.000006 1.000000
-0.124512 -0.103365 0.152002 0.033730 -0.022256 0.999183
-0.009094 0.750244 0.167111 0.871270 -0.105825 0.479260
0.455892 -0.722103 0.096109 0.966491 -0.200613 -0.160152
-0.143404 -0.855965 0.159901 -0.496171 0.639360 -0.587395
-0.087324 -0.481855 0.162537 -0.579935 0.212029 0.786587
0.197215 -0.228349 0.151018 -0.125420 0.128265 0.983777
0.192842 -0.972134 -0.011064 -0.584366 -0.200784 0.786258
-0.115426 0.065554 0.165377 0.214250 0.690333 0.691041
0.039657 0.484107 0.083013 -0.261512 -0.643086 0.719758
-0.328695 -0.039223 -0.140441 -0.559555 0.527235 0.639470
-0.338134 -0.084190 0.076655 0.905922 0.121881 -0.405525
-0.176073 -0.789005 -0.161358 -0.059265 -0.288728 0.955575
-0.276484 -0.202055 -0.161679 0.136274 0.107649 0.984805
0.039718 -0.610068 0.170081 0.460423 -0.776156 0.430804
0.078317 -0.994857 -0.153419 0.015725 0.972876 0.230794
0.020301 -0.835503 -0.152563 0.843278 -0.402876 0.355771
0.072501 0.196917 -0.104124 -0.416545 -0.853595 -0.312834
-0.219575 -0.977115 0.095817 0.134431 0.990296 0.035227
-0.382664 -0.437353 0.134427 -0.202819 0.858608 -0.470805
-0.067918 -0.566589 -0.162779 0.966179 0.056093 0.251699
0.019388 -0.846219 -0.147618 0.832767 -0.204549 -0.514450
-0.291254 -0.216785 0.104864 0.466171 -0.873957 -0.137420
-0.215028 -0.870357 0.154664 0.043529 0.019007 0.998871
0.434352 -0.612418 0.158140 -0.575787 0.787615 0.219389
0.440614 -0.549899 -0.068426 0.967025 0.231725 -0.105667
0.281897 -0.166379 0.149258 -0.048986 0.081242 0.995490
0.070445 0.205246 0.173259 0.868567 0.062958 -0.491555
0.280228 -0.873064 0.150041 -0.751844 0.279649 0.597099
0.159566 -0.974426 -0.123946 0.574939 -0.125483 0.808516
-0.072821 0.201460 0.017650 -0.581128 0.741528 -0.335301
-0.186418 -0.791876 -0.162827 0.028618 0.156325 0.987291
0.350286 -0.380133 0.144446 -0.593962 -0.040605 0.803468
0.221990 -0.977565 -0.127732 0.165875 -0.978947 -0.118950
-0.431094 -0.533150 0.001949 0.885061 -0.465460 0.003842
-0.039481 0.719709 0.152589 -0.016069 0.003197 0.999866
-0.156867 -0.416946 -0.162826 0.034038 -0.036755 0.998745
-0.338869 -0.371837 0.160778 0.163293 0.859159 0.484954
-0.345197 -0.895394 0.082922 0.483011 -0.832415 -0.271637
-0.419332 -0.671889 0.148675 -0.036582 -0.016240 0.999199
0.026142 0.500309 0.175748 0.980769 0.161167 -0.110082
-0.253643 0.140510 0.006629 0.413169 -0.854959 -0.313587
0.303791 0.102363 0.004830 0.765768 0.642553 0.026930
0.246108 -0.455202 0.168458 -0.266379 -0.935534 -0.231988
0.443687 -0.533291 -0.080145 0.330680 -0.671609 0.663017
0.070564 -0.999449 -0.014095 0.174485 0.984620 -0.008875
-0.263112 -0.192148 -0.147791 -0.002763 -0.449221 0.893417
0.221500 -0.276335 0.151762 0.175575 0.112159 -0.978056
-0.071796 0.956863 0.150127 0.599988 -0.798537 -0.048511
0.030593 -0.763325 0.151687 -0.158190 -0.263329 0.951648
0.271326 0.109629 0.149892 -0.107140 -0.126136 -0.986210
-0.346722 -0.520965 0.158437 0.597932 -0.740797 0.306103
0.340386 -0.011596 0.100073 0.981124 0.086946 0.172729
0.109337 -0.998095 -0.069368 0.068962 -0.995410 0.066359
0.218846 -0.975577 -0.142623 0.209491 -0.970683 -0.117849
-0.436563 -0.566375 0.117572 0.978354 -0.047482 -0.201415
-0.132958 -0.844765 0.150471 -0.221987 0.299455 0.927927
-0.079671 -0.437611 0.150225 -0.089783 0.020282 -0.995755
-0.289413 -0.496938 -0.146532 0.961804 -0.258142 0.091079
-0.224060 -0.973793 0.043353 -0.102880 0.973417 -0.204636
0.111124 -0.714219 -0.154679 -0.182621 -0.052036 0.981806
-0.089502 0.891077 0.112069 0.981827 0.188209 -0.024366
-0.337004 -0.038666 -0.080091 0.993921 0.098725 0.048718
-0.021740 0.860307 0.139305 0.896157 0.437843 0.072085
-0.454532 -0.636523 0.145374 0.846204 -0.445960 -0.291649
-0.171792 -0.324646 0.164396 0.240912 0.952946 0.183997
0.264336 -0.899504 0.149860 0.094366 -0.091100 0.991360
-0.405046 -0.827755 -0.036987 -0.450656 -0.394654 0.800723
-0.013979 -0.601169 -0.162820 0.182124 0.055607 -0.981702
-0.446440 -0.758209 -0.103911 0.995845 0.081239 0.041155
0.021532 -0.460224 0.165036 -0.199726 -0.175135 0.964073
-0.269646 -0.946734 0.144030 0.061124 -0.484223 0.872807
-0.024327 0.562308 0.083409 -0.384153 -0.612291 -0.691034
0.016434 -0.677668 0.170175 -0.378302 -0.882325 0.279981
-0.081133 0.931703 0.148810 0.911211 0.380244 -0.158459
-0.307779 -0.202742 0.051183 0.968722 -0.042142 0.244544
-0.302888 -0.396308 -0.142230 0.819311 -0.573310 -0.006757
-0.037729 -0.035435 0.162962 0.051754 -0.009307 0.998617
0.264761 -0.534123 -0.162710 0.076813 -0.410579 0.908584
0.364346 -0.414902 -0.139001 0.665093 0.746461 0.021137
0.304196 -0.227399 0.093956 0.994159 -0.092894 0.054942
0.065682 0.890757 0.139578 -0.743960 -0.043484 0.666807
-0.067615 0.218155 0.159273 0.735032 -0.266119 -0.623625
-0.412390 -0.734166 -0.143388 0.763098 -0.645748 -0.026269
-0.032839 0.536268 0.161505 -0.027705 0.009381 0.999572
0.147245 0.135900 -0.151490 -0.046476 0.651963 0.756825
-0.323392 0.061084 -0.084415 0.973015 -0.230348 0.013511
-0.013556 -0.848314 -0.145541 0.808947 0.067799 0.583959
0.449506 -0.588008 -0.020451 0.939680 0.189383 0.284842
0.443267 -0.545617 0.004274 0.952659 -0.108075 -0.284184
-0.315456 -0.093013 0.148114 0.735500 -0.520473 0.433761
0.039557 -0.319245 -0.161636 -0.005638 -0.026112 0.999643
0.156763 -0.994125 0.011931 -0.122308 0.992306 0.019198
-0.197115 0.025983 0.156913 -0.233067 -0.310646 -0.921509
0.460603 -0.712040 -0.005343 0.987657 -0.145378 0.058301
0.459631 -0.633892 -0.121685 0.884248 0.467009 0.002795
0.321483 -0.189770 -0.061824 -0.176437 0.856313 -0.485385
0.448096 -0.561300 -0.104377 -0.694334 0.548830 0.465495
-0.062148 0.706242 0.145453 -0.369080 -0.414773 0.831711
-0.026629 0.778750 0.089868 0.226237 0.090393 0.969869
-0.009938 0.689025 0.080732 0.227539 -0.297828 0.927106
-0.316246 -0.727907 -0.153899 -0.263524 0.255916 -0.930087
-0.071443 0.217745 0.152643 0.982098 0.054441 -0.180335
-0.057994 0.493758 0.155395 0.515801 -0.173127 -0.839033
0.329584 -0.044472 0.151993 0.523550 -0.527106 0.669369
-0.305858 -0.273615 0.069569 0.943590 -0.331114 0.001180
0.050420 0.509575 0.169599 0.876097 0.477667 0.065492
0.462858 -0.632344 -0.036523 0.990885 0.134309 0.010363
0.423227 -0.502269 -0.036973 -0.662946 0.013022 0.748554
-0.270139 -0.035436 -0.158605 0.055443 0.059017 0.996716
-0.046776 0.435071 0.112396 0.024070 -0.690250 0.723171
0.276692 0.031231 -0.145056 0.996861 -0.063163 0.047729
-0.326640 0.030284 0.061464 0.990164 -0.136028 -0.032727
-0.060390 0.851580 0.140161 0.797058 0.108516 0.594073
-0.246506 -0.459541 0.150225 -0.067155 -0.097908 0.992927
-0.327659 0.001854 -0.138819 0.931381 -0.336058 -0.139977
-0.190321 -0.224206 -0.162828 0.011023 -0.007580 0.999910
-0.060894 0.968273 0.115115 -0.227262 0.419922 -0.878646
0.343372 -0.804232 -0.149552 0.786047 0.297664 -0.541781
-0.336867 -0.541009 0.168218 -0.143362 0.877038 -0.458531
-0.228054 -0.310630 0.150114 -0.089507 0.048271 0.994816
-0.128138 -0.128970 0.160370 0.318224 0.502378 0.803959
0.385646 -0.874043 -0.078243 0.662072 -0.749427 -0.004516
0.027469 0.422722 0.162150 -0.001387 -0.118783 0.992919
-0.012846 0.115822 -0.162013 -0.293420 0.493815 0.818567
0.342343 0.030690 0.158968 0.647222 -0.281389 0.708466
0.094187 -0.996213 0.110266 -0.219629 -0.963722 -0.151668
-0.246481 -0.376094 0.155309 -0.004667 -0.059541 0.998215
0.223895 -0.441746 -0.162827 0.304839 -0.133478 -0.943004
0.104439 -0.949605 0.154389 0.106441 -0.020325 -0.994111
-0.310664 -0.935720 0.043638 -0.489769 -0.871523 0.023955
-0.379712 -0.579421 0.150441 0.005960 -0.122311 -0.992474
-0.181423 -0.288746 0.169724 0.166994 -0.959242 -0.227965
0.019465 0.982032 0.165838 -0.533405 -0.843236 -0.066575
-0.388997 -0.453922 -0.044140 0.820666 -0.507545 -0.262501
0.213773 -0.735235 0.168005 0.856331 -0.007007 -0.516379
-0.447589 -0.649326 0.115055 0.943495 -0.315428 0.101597
0.042645 0.227902 -0.134287 0.886053 -0.358032 -0.294488
0.040444 -0.589154 0.150226 -0.004974 0.013782 0.999893
0.084398 0.839303 0.136479 0.864433 0.366300 0.344354
0.030591 -0.995675 -0.038198 0.685275 0.663938 0.299305
-0.317200 -0.809798 -0.162566 -0.059671 0.170706 0.983514
-0.373892 -0.459992 -0.159965 0.454821 -0.491281 0.742820
0.453185 -0.729867 -0.047024 0.493216 -0.844336 -0.209369
0.360130 -0.448286 -0.159146 0.947273 -0.314907 -0.059225
-0.076184 -0.104960 -0.161088 0.165477 0.039358 0.985428
-0.423065 -0.520089 0.119101 -0.743461 0.668756 -0.005606
-0.239388 -0.473874 0.158049 -0.406681 -0.143495 -0.902230
-0.304616 -0.007918 -0.161691 0.026874 0.037482 0.998936
-0.319496 -0.071051 -0.046225 -0.702176 -0.303118 -0.644259
-0.389022 -0.471076 -0.158353 -0.376480 0.154641 -0.913427
-0.166442 -0.204634 -0.162147 -0.021591 -0.001032 -0.999766
0.079077 -0.296136 -0.162786 -0.615773 -0.772249 0.156383
0.241636 -0.600537 -0.162262 -0.018934 -0.019168 0.999637
0.032302 0.247476 0.180159 0.800457 -0.252370 0.543671
-0.084955 0.161039 -0.150406 0.174698 0.938439 0.298016
-0.456944 -0.638300 -0.118203 0.983783 -0.177267 0.027330
0.045712 -0.980568 -0.008988 -0.590308 0.311047 -0.744840
-0.310488 -0.745448 -0.162828 0.125916 -0.243522 0.961687
0.332070 -0.180171 -0.039717 -0.434460 -0.606510 0.665875
0.208106 -0.342339 -0.162809 -0.014534 -0.027152 0.999526
0.312104 -0.280132 0.026397 0.901785 0.421168 -0.096965
0.317877 -0.623026 0.157063 -0.406560 -0.807463 0.427448
-0.082849 0.778142 0.130854 0.238461 -0.970590 -0.033058
0.154791 -0.992542 -0.135532 0.089014 -0.995620 -0.028577
-0.372364 -0.421597 -0.000119 0.932867 -0.273709 -0.234188
-0.129565 -0.863588 -0.161408 0.987615 -0.111890 -0.109989
-0.188659 -0.975210 -0.038178 -0.801919 0.596735 -0.028852
-0.388808 -0.444063 -0.029876 0.992313 -0.118343 0.036203
0.360751 -0.897231 -0.002216 0.534867 -0.807733 0.247962
-0.045664 0.580140 0.087130 0.861623 -0.082778 0.500753
-0.077702 0.840881 0.147020 0.394321 0.017997 -0.918797
0.046076 -0.510286 0.150599 -0.008294 -0.033745 0.999396
0.085192 0.196715 0.121266 0.343887 0.857270 0.383184
-0.111286 -0.554370 0.150373 0.003208 -0.003483 0.999989
0.221994 -0.572083 0.155020 -0.249646 -0.108388 0.962252
-0.050817 0.979178 0.158678 0.541153 -0.838458 0.064352
0.111173 -0.210123 0.121903 0.815414 -0.011956 -0.578755
-0.270180 -0.798550 -0.162269 -0.057459 -0.006699 0.998325
0.350105 -0.382301 -0.154266 0.855116 0.516179 -0.048336
-0.316901 -0.147278 0.056599 0.954776 0.294629 0.039945
-0.114002 -0.265483 0.152062 0.115676 0.162254 -0.979945
0.178038 -0.988920 0.062266 -0.341868 0.517624 -0.784342
-0.236347 0.069472 0.150891 -0.003415 0.047787 0.998852
-0.219343 -0.089582 0.150604 -0.003737 0.527856 0.849326
-0.073557 -0.090720 0.150224 0.438603 -0.059677 -0.896697
-0.418294 -0.660199 0.149537 0.030498 -0.071577 0.996969
-0.296273 -0.290569 -0.117545 -0.080334 0.787475 -0.611089
-0.421897 -0.522300 -0.135638 0.924545 -0.355364 0.137597
-0.263910 -0.780525 0.150227 0.000320 -0.000026 1.000000
0.085607 -0.388144 -0.142853 0.478930 -0.658534 0.580482
0.090214 -0.705189 0.162961 0.960547 0.134782 0.243277
0.173554 -0.123786 -0.162750 -0.027845 -0.340313 0.939900
-0.190003 -0.676748 0.153803 -0.015111 -0.001299 0.999885
-0.114571 -0.985120 0.015751 0.756171 0.284321 -0.589378
-0.337549 -0.010061 0.101773 0.998316 -0.016689 -0.055557
-0.068383 -0.576540 -0.162828 -0.000152 -0.002063 0.999998
0.303804 -0.486949 0.150266 0.464305 -0.867366 -0.179159
-0.329823 -0.333638 0.009534 0.937801 -0.346752 -0.017111
-0.365592 -0.796646 -0.161955 -0.003126 -0.010104 0.999944
0.428750 -0.815684 -0.151343 0.280983 -0.959417 0.023813
0.091141 -0.185612 0.141807 0.145735 -0.898554 -0.413959
0.262043 -0.416654 0.150545 0.163460 0.059953 0.984727
-0.006519 0.141487 0.162835 0.064943 0.064132 0.995826
0.344934 -0.111552 0.164330 0.781888 0.287206 -0.553321
-0.373969 -0.629921 0.150054 -0.014064 -0.003951 -0.999893
0.312391 -0.925601 -0.126445 0.465459 -0.754534 0.462630
0.139536 -0.996561 0.038040 -0.007069 0.969175 0.246271
0.236166 -0.974348 0.112065 -0.136004 0.990464 -0.021977
0.459266 -0.642481 0.118489 0.987124 0.159492 0.012165
0.041672 0.581996 0.077465 -0.174146 0.066107 0.982498
-0.427136 -0.560133 -0.117947 -0.547616 -0.570931 -0.611681
0.068025 -0.661914 0.150224 0.122257 -0.125544 -0.984526
0.057094 0.950756 0.085695 0.006428 -0.040941 0.999141
-0.002067 -0.990382 0.004552 0.310048 0.921894 -0.232339
0.041277 -0.662813 0.150225 0.152900 0.170382 0.973443
-0.170698 0.025492 -0.162826 -0.000439 -0.000424 1.000000
-0.135808 -0.377627 -0.161488 0.068431 0.225314 0.971880
-0.227139 -0.811884 -0.142877 0.936552 0.333663 -0.107423
-0.195338 -0.662373 0.150237 -0.518355 0.136879 0.844140
0.447982 -0.769545 -0.036453 0.975728 -0.197825 0.093918
0.060908 -0.406472 0.150283 -0.104403 -0.086194 0.990793
0.009960 -0.148844 0.121966 0.002014 0.000857 0.999998
-0.179821 -0.524457 0.157113 -0.005371 0.402869 0.915242
0.126445 0.188432 0.062703 -0.138956 -0.988711 0.056046
-0.462764 -0.671552 0.028641 -0.359788 -0.295300 0.885071
-0.083800 0.195873 0.010609 0.215150 -0.963823 0.157338
0.429396 -0.512464 -0.046671 0.812953 0.555306 0.175335
-0.031735 0.156144 -0.162828 -0.028988 0.010113 0.999529
-0.043592 -0.932384 0.149668 0.011605 0.008506 0.999897
-0.167549 -0.902795 0.149668 0.011895 -0.017162 0.999782
0.322586 -0.866708 -0.162253 -0.218398 0.129293 0.967257
-0.334281 -0.919179 0.019118 0.686363 0.705547 -0.176381
0.130351 -0.158586 -0.155057 0.730178 -0.405237 0.550112
0.039243 0.471267 0.179313 0.028781 -0.994257 0.103073
0.289370 -0.760881 0.151081 -0.071538 0.647088 0.759051
0.022613 -0.013169 0.182798 0.822965 -0.558265 -0.105207
0.299615 -0.337858 0.169228 -0.499056 -0.646942 0.576549
-0.239095 -0.319793 -0.162054 0.000615 -0.005572 0.999984
-0.007560 -0.562442 -0.157088 0.195652 -0.015342 0.980553
-0.074232 0.195191 -0.159491 0.366878 -0.833851 -0.412422
0.034110 -0.091628 0.129666 0.824434 -0.051258 -0.563631
-0.039043 -0.795230 0.150231 0.345789 -0.056511 0.936609
0.158989 0.094278 0.159541 -0.355747 -0.532045 0.768356
-0.247686 -0.855296 -0.162716 0.001805 0.000621 0.999998
-0.056193 0.614156 0.153751 -0.535303 -0.056259 0.842785
0.406664 -0.798479 0.167246 0.172605 -0.945113 -0.277432
0.049024 -0.919338 0.151702 0.091472 -0.021689 0.995571
0.305690 -0.906777 0.149317 -0.080381 0.052120 -0.995401
-0.174890 0.185213 0.132183 0.332581 -0.942334 -0.037376
-0.309488 -0.130543 0.006542 0.090225 -0.235734 -0.967620
0.336881 0.047564 0.050541 0.995626 0.090952 -0.021348
-0.025260 -0.305537 0.124757 0.219072 -0.140681 0.965513
0.067848 0.236051 0.154009 0.791333 0.147486 0.593330
0.053019 0.432091 0.079533 0.636577 0.504161 -0.583602
0.222280 0.169505 0.131280 0.294461 0.928070 0.227987
0.324158 -0.203631 -0.110990 0.133988 0.189915 -0.972615
-0.318338 -0.343704 0.052380 0.390299 -0.045640 0.919556
-0.351839 -0.495690 -0.161996 0.123320 -0.070557 -0.989855
0.366599 -0.899878 0.136829 0.919464 0.022281 0.392542
0.297593 -0.763865 -0.143857 0.052591 0.970867 -0.233778
0.457121 -0.701842 0.119437 0.875454 -0.379257 -0.299575
0.189976 -0.976472 0.064245 0.704941 0.707741 -0.046474
-0.057172 0.199717 0.017647 -0.432465 -0.873384 -0.223998
0.324659 -0.077522 0.148076 0.476037 -0.107216 0.872865
0.375752 -0.521278 0.149689 0.055050 0.017127 0.998337
0.344805 0.046706 0.115050 -0.238379 -0.373238 -0.896587
0.439998 -0.709730 0.146595 0.703030 0.269945 0.657935
-0.107908 0.194138 0.146605 -0.356888 -0.334701 -0.872128
0.361320 -0.342037 0.036631 0.023837 -0.603816 0.796768
-0.056242 -0.600307 0.150258 0.269742 -0.175036 0.946890
0.225669 0.171969 0.010870 0.760259 0.452945 -0.465668
-0.425141 -0.814268 -0.017574 0.894968 0.446126 0.001980
-0.283317 0.128796 0.046231 -0.751673 0.651013 0.105685
-0.226517 -0.562518 -0.157701 -0.205662 0.090241 0.974454
-0.223767 0.162965 -0.035893 0.661846 -0.729480 -0.172683
0.206930 -0.761899 0.150746 0.020244 -0.009406 -0.999751
0.012547 0.999785 0.120433 -0.743786 0.538331 -0.396210
0.454323 -0.717584 0.046688 0.991648 -0.124123 -0.035048
-0.100505 0.202442 0.132760 0.340145 0.826384 0.448765
-0.042281 -0.816829 -0.162714 0.842099 -0.515628 -0.158102
0.369917 -0.888125 -0.039723 -0.732324 0.632916 -0.251235
-0.040920 -0.984243 -0.075910 -0.412815 0.900379 -0.137479
0.244587 -0.476738 0.150245 -0.094342 0.030605 0.995069
0.445274 -0.572228 0.141412 -0.671659 0.013654 -0.740734
-0.319025 0.071334 -0.079642 0.461555 -0.407534 -0.787961
-0.138079 -0.169549 0.150226 -0.000012 0.000006 1.000000
0.327799 0.044159 0.017064 0.977461 0.211117 -0.000151
0.003666 0.324748 0.032883 -0.051274 -0.112311 0.992349
0.418445 -0.797679 -0.158186 -0.380423 0.027494 0.924404
0.206371 -0.751950 0.150267 0.004006 0.028003 0.999600
0.158468 -0.548731 -0.150212 -0.045582 0.558617 0.828172
-0.317170 -0.141752 -0.156593 0.525067 0.482160 0.701303
0.197854 -0.662679 -0.145178 0.274086 0.959474 0.065471
0.338294 -0.856805 0.154615 -0.039630 0.171584 0.984372
0.338588 -0.035995 0.132834 0.820847 -0.220517 0.526860
0.162564 -0.083293 0.150783 -0.004293 -0.002251 0.999988
-0.310801 0.089363 0.129138 0.750135 -0.297669 -0.590500
-0.304562 -0.504627 -0.162698 0.022143 0.025542 0.999429
-0.415406 -0.822965 0.093507 0.699333 0.711980 -0.063387
-0.009333 0.754000 0.151189 0.000077 -0.000008 1.000000
-0.183783 0.117072 0.162799 0.206402 -0.607419 -0.767099
-0.316222 -0.169240 -0.055238 0.960428 0.278427 0.007477
-0.073013 0.215096 0.077796 0.893394 -0.422223 0.153541
-0.294393 -0.765391 0.156572 0.224183 0.460490 -0.858889
0.077115 -0.048789 0.160966 -0.536044 -0.207108 0.818391
0.407022 -0.837730 -0.155758 -0.250683 0.285176 0.925112
0.139361 -0.932968 0.153367 0.864865 0.501947 0.007584
-0.062192 0.217604 0.162386 -0.503327 -0.320122 0.802611
0.150238 -0.501489 -0.159869 0.021815 -0.033396 0.999204
-0.016263 -0.404883 0.150229 0.119834 -0.415640 -0.901600
0.295097 -0.923445 -0.160305 0.054658 0.263007 0.963244
-0.341783 -0.619492 0.150689 0.013705 -0.030566 0.999439
0.305758 -0.197256 0.033861 0.881485 -0.413903 -0.227307
0.270054 -0.480728 0.157063 0.105983 0.967236 0.230698
0.395184 -0.465263 0.054357 0.897052 0.441426 -0.021017
0.183080 -0.988108 0.021369 0.208688 -0.977763 -0.020721
0.074549 -0.004512 -0.159539 -0.029719 0.010914 0.999499
-0.015819 0.666613 0.161921 0.080123 0.076966 0.993809
-0.005985 -0.272790 0.130115 0.621491 0.580398 0.526201
0.326144 -0.130393 -0.073687 0.967604 -0.252426 -0.004893
-0.027087 0.237953 -0.123349 0.722498 -0.681237 0.117953
-0.024530 0.336167 0.037719 0.099861 -0.279434 0.954958
-0.321942 0.064105 -0.076207 0.966114 -0.257078 0.023127
-0.266089 -0.287662 0.151393 0.215685 0.086633 -0.972612
0.170563 -0.918963 0.150116 -0.044188 -0.029395 0.998590
0.157801 0.194531 -0.100424 -0.666622 0.639030 -0.383739
-0.304674 -0.212371 -0.079409 0.985968 0.121874 0.114082
0.062379 0.299212 0.055745 0.951510 0.147762 -0.269807
0.093965 0.192584 -0.038616 -0.148290 -0.969399 -0.195639
-0.133664 -0.993482 0.121675 -0.118435 0.985458 0.121841
-0.103600 0.038630 0.150225 0.083830 -0.159665 0.983606
0.333427 -0.622702 -0.150697 0.647797 0.398649 0.649183
0.147410 0.181903 0.147221 -0.307226 0.367952 0.877624
0.196597 0.031406 0.165823 0.796623 0.180261 -0.576974
-0.228431 0.159898 -0.091879 -0.289200 0.937594 -0.193082
0.033557 -0.080345 -0.162612 -0.471375 -0.592957 -0.652847
0.055456 -0.520529 0.150474 -0.030531 -0.011933 0.999463
-0.440740 -0.551332 0.052147 0.922100 -0.329559 0.202785
0.291080 -0.522522 0.152228 0.142178 -0.099987 0.984778
0.136174 -0.991221 0.031882 -0.092781 -0.979508 -0.178762
0.084785 -0.125645 0.154132 0.943591 0.282624 0.172511
-0.293323 -0.937229 -0.014824 -0.755901 0.388683 0.526820
-0.019927 0.400460 0.166549 -0.477555 -0.589040 0.651900
0.371684 -0.419636 -0.125948 0.956843 0.290485 -0.008320
-0.336394 -0.006402 -0.108606 0.975571 -0.198276 0.094592
0.016519 -0.998547 0.066497 -0.520178 0.801315 0.295481
0.453883 -0.613779 -0.050757 0.982463 0.183841 -0.031117
0.073990 -0.238074 0.125240 -0.029592 -0.206326 0.978036
0.434083 -0.532866 0.037045 -0.337387 -0.277900 0.899412
0.147933 -0.131720 0.152476 0.266353 0.094158 0.959265
0.328422 -0.434691 0.169391 -0.411862 0.831444 0.372922
0.325852 -0.939146 -0.006354 0.539961 -0.823101 0.175919
0.037948 -0.622193 -0.162761 -0.012272 -0.027532 0.999545
-0.451852 -0.625098 -0.129835 0.932530 -0.242699 0.267368
-0.332976 0.016570 0.111766 0.533275 0.842150 0.080005
0.228311 -0.602594 -0.162826 -0.008939 0.000539 0.999960
-0.397782 -0.570979 -0.161314 -0.337246 -0.212899 -0.917028
-0.454558 -0.638265 0.014932 0.992011 -0.076675 0.100173
0.062790 -0.994393 -0.144737 0.254460 0.849940 -0.461360
0.407237 -0.487879 -0.051897 0.871025 0.485476 0.075031
-0.024467 0.483407 0.168845 0.318662 0.090878 0.943502
-0.218015 -0.306677 0.152985 -0.223145 0.258966 -0.939757
0.098720 -0.188194 -0.147845 0.842066 0.538753 0.025888
-0.011623 0.958252 0.085908 0.224820 0.341534 0.912584
0.051829 0.651308 0.160856 0.922323 -0.192230 0.335214
-0.326726 -0.038266 0.146480 -0.498355 0.121456 0.858423
-0.420131 -0.800631 0.105130 0.224806 -0.871757 0.435318
-0.260956 -0.071576 0.150622 -0.101603 -0.306980 0.946277
-0.365981 -0.426579 0.018589 0.253772 -0.404921 -0.878430
-0.311135 -0.918359 0.075865 0.396044 0.096351 0.913162
-0.037640 -0.995133 0.118308 0.077478 0.995847 -0.047807
-0.221217 0.077735 0.152383 -0.127906 -0.232158 0.964232
-0.330427 -0.785951 0.150398 -0.004627 -0.057787 0.998318
0.349340 -0.376098 0.115520 0.738744 0.663306 -0.119507
0.335438 -0.077070 -0.152165 0.712275 -0.065480 0.698840
0.090393 0.095885 0.150446 0.010524 -0.009385 0.999901
0.402085 -0.520920 -0.160393 0.112472 0.063797 -0.991605
-0.055016 0.290066 0.056800 0.980339 0.049281 0.191070
-0.293431 0.087888 -0.025437 0.487773 0.589586 0.643790
-0.300059 -0.360950 -0.161845 -0.018448 0.032350 0.999306
-0.333862 -0.108311 0.121880 0.992780 0.096057 0.071837
0.282329 -0.347008 0.149668 -0.160393 -0.172168 0.971922
0.133957 -0.845103 0.169315 0.857927 -0.499653 -0.119617
-0.392368 -0.826522 -0.100168 0.431132 -0.877548 0.209842
-0.002947 0.128732 0.162827 0.049078 0.161691 -0.985620
-0.389000 -0.487952 0.146974 0.605361 -0.121414 -0.786636
-0.048649 0.679821 0.160998 0.607915 -0.247833 -0.754333
-0.450888 -0.578206 -0.045414 0.973778 0.227486 -0.002501
0.005282 0.839730 0.100007 0.928179 0.101685 0.357972
-0.075054 0.145079 0.165270 0.385505 0.232247 -0.892999
-0.452746 -0.737336 -0.001863 0.963873 -0.055747 -0.260462
0.007136 0.657281 0.162242 -0.051900 0.076465 0.995721
0.107374 -0.678232 0.154111 0.078780 0.255211 0.963671
-0.041270 0.663572 0.142873 0.206840 0.969090 0.134469
-0.335970 -0.052297 -0.148654 0.955843 0.147163 0.254378
-0.032663 0.056790 0.162899 0.126002 -0.069991 0.989558
0.195768 -0.227628 -0.155634 -0.034005 -0.022280 -0.999173
-0.299120 -0.070178 0.160454 0.856199 -0.466561 -0.221911
-0.352975 -0.573656 -0.150939 -0.123303 0.015919 0.992242
-0.320937 0.093352 -0.075398 0.236693 -0.091751 -0.967243
-0.230820 -0.009654 -0.142808 -0.643760 -0.383053 0.662453
0.267839 -0.511767 -0.146223 -0.558078 -0.701994 0.442441
-0.087371 -0.900026 0.150193 -0.000898 0.010752 0.999942
-0.234212 -0.568241 -0.162777 -0.036980 0.159523 0.986501
-0.324660 -0.094936 -0.060948 0.826472 0.003179 0.562968
0.314620 -0.366377 -0.158475 -0.008582 -0.120103 0.992724
-0.263731 -0.939958 0.147391 0.063080 0.315477 -0.946835
-0.328889 -0.539904 0.169799 0.836692 0.472119 -0.277579
-0.058877 -0.047972 -0.162822 0.069032 -0.034393 0.997021
0.336288 0.010422 -0.018481 0.891468 0.395959 -0.220229
0.075443 0.048265 -0.159898 0.082093 -0.053654 0.995179
-0.016171 0.480609 0.161754 0.591215 -0.185500 0.784891
0.004169 0.215866 0.170977 0.329159 -0.517330 -0.789952
0.312342 -0.021035 -0.160274 -0.087268 -0.005891 0.996167
0.258085 -0.256942 0.164906 0.886775 -0.267921 -0.376628
-0.309063 -0.138825 0.145740 -0.169339 -0.234402 0.957278
-0.399845 -0.522889 0.159467 -0.293210 -0.788539 -0.540588
0.022122 0.883057 0.085922 0.043032 -0.042441 0.998172
-0.231450 -0.410664 -0.152266 -0.565314 -0.788971 0.240720
0.116025 -0.377856 0.150278 -0.186546 0.082564 0.978971
0.113342 0.202567 -0.018606 0.754766 0.639916 0.144344
0.072811 -0.200082 -0.162826 -0.006232 0.199769 0.979823
-0.369191 -0.422982 -0.073834 0.962905 -0.210833 -0.168415
0.013991 0.998690 0.143158 -0.136499 -0.955847 0.260239
0.097253 -0.164956 -0.162714 -0.002041 0.006424 -0.999977
0.083399 -0.991529 -0.158296 -0.028272 0.567081 0.823177
0.116743 0.191883 -0.132436 0.028095 -0.999255 -0.026464
0.057054 0.680564 0.150231 0.994320 0.021500 0.104239
-0.285315 -0.252086 -0.043350 0.317096 0.662595 -0.678541
-0.121235 0.192332 0.056552 0.169107 -0.982978 0.071807
0.246011 0.159577 -0.098920 -0.343752 -0.921640 -0.180037
0.036000 -0.482053 0.153154 0.047764 -0.019294 0.998672
-0.330129 -0.051630 -0.008239 -0.342639 -0.833593 0.433268
0.353793 -0.082569 0.041069 -0.096735 0.040785 0.994474
0.100729 -0.574925 -0.161719 0.157786 0.042164 0.986573
-0.247181 -0.169640 0.149990 -0.527201 -0.149221 0.836536
-0.374368 -0.836380 0.161107 0.513917 0.341375 -0.786990
-0.063596 0.044902 0.173923 0.992839 0.019530 -0.117857
0.207043 -0.108388 -0.152741 -0.317691 0.017748 -0.948028
0.313226 -0.498623 -0.162547 -0.015285 -0.008424 0.999848
-0.334368 -0.074645 -0.117459 0.997934 0.029310 -0.057169
0.173384 -0.599811 0.150224 0.037942 -0.183894 0.982213
0.384690 -0.445373 0.021571 0.761076 0.523567 -0.382937
-0.169456 0.028354 -0.162826 -0.000116 -0.000992 1.000000
0.319148 0.096680 -0.083430 -0.314526 -0.183503 -0.931343
0.275875 -0.652002 -0.149729 0.909268 -0.149184 -0.388557
-0.030125 -0.886395 -0.160616 -0.084196 0.044199 0.995468
-0.303011 -0.255164 0.053629 0.999088 0.042672 0.001133
-0.410241 -0.629422 0.167348 -0.694051 0.608051 -0.385445
0.134878 -0.555842 -0.162712 -0.000184 -0.000019 1.000000
-0.428062 -0.714513 0.147476 0.106742 0.032995 -0.993739
0.429651 -0.510778 -0.006852 -0.308084 -0.940027 -0.146398
-0.080597 -0.357626 0.150226 -0.010424 0.027768 0.999560
-0.034593 0.981609 0.170141 -0.097546 0.880598 -0.463714
0.296383 -0.937498 -0.153820 -0.297522 0.831823 0.468562
-0.067233 0.023110 -0.143009 0.439714 -0.857477 0.267179
0.013360 -0.998924 -0.115474 -0.001813 0.999707 0.024122
0.005095 0.063181 -0.162822 -0.067306 -0.042688 0.996819
-0.333340 -0.852866 -0.149505 -0.245569 -0.579006 0.777463
-0.359961 -0.895704 0.074728 -0.640669 -0.767460 0.023401
0.008851 0.236485 -0.162592 -0.499060 -0.864556 0.059003
-0.233316 -0.162866 -0.162323 0.890236 -0.422310 -0.170690
0.041110 0.524996 0.078227 -0.636298 0.089250 0.766263
-0.073973 -0.727538 0.160615 -0.060243 0.325911 0.943479
-0.052470 -0.433222 0.169767 0.951761 -0.272427 0.141187
0.347256 -0.572881 0.150315 -0.117164 -0.023981 -0.992823
0.076150 0.380813 0.105315 0.535111 0.602506 -0.592151
0.021324 -0.613091 0.167225 0.494603 -0.865460 -0.079660
-0.370887 -0.876991 -0.141351 -0.101732 0.805990 0.583121
-0.163129 -0.992348 -0.090730 0.126524 0.984335 -0.122785
-0.103113 -0.197929 0.121932 -0.209642 -0.068012 -0.975410
0.283139 -0.376075 0.149812 0.026885 0.014905 0.999528
0.217415 -0.704187 0.164160 0.070594 0.899824 0.430505
0.336176 0.008424 0.017042 0.996090 0.002642 -0.088307
-0.238557 -0.733155 0.167603 0.920651 -0.390148 0.013634
0.333964 -0.339186 -0.090389 0.899995 0.349884 -0.259980
0.267219 -0.869297 -0.162207 0.022241 0.016841 0.999611
-0.276655 -0.810658 -0.162827 -0.033037 -0.025597 0.999126
-0.029474 -0.310810 0.163615 0.909875 0.242049 -0.336957
0.149752 0.190931 0.146271 0.396999 -0.547311 0.736778
0.073868 -0.078489 0.159210 0.555633 -0.775954 0.298608
0.235519 -0.773951 0.156864 0.277096 0.936831 -0.213460
0.168560 -0.110677 0.170224 0.791679 -0.600079 -0.114669
-0.079719 0.709527 0.108595 0.953368 -0.176059 -0.245136
-0.056921 0.387798 0.105003 0.999787 0.003167 0.020400
0.066828 -0.894569 -0.162824 0.115403 -0.066550 -0.991087
-0.061934 0.873742 0.147399 0.759267 0.467034 -0.453203
-0.049762 -0.643435 -0.162824 -0.003851 -0.012837 0.999910
0.251262 0.159090 0.119089 0.456760 0.888653 -0.040824
0.166362 0.180826 -0.088336 0.702897 0.710918 0.023034
0.338885 -0.065083 -0.091565 0.996653 -0.078154 -0.023991
0.007973 0.043215 -0.162828 0.074181 -0.025296 0.996924
-0.146445 0.194834 0.000178 -0.300660 0.811308 -0.501381
0.453402 -0.600448 -0.088029 0.957080 0.258562 0.130931
0.428631 -0.811731 0.025968 -0.726048 0.684299 0.067746
-0.361445 -0.886153 0.005610 -0.589904 -0.800077 0.109039
0.360871 -0.373544 -0.126337 -0.352250 -0.057634 0.934130
-0.006005 0.341407 0.039967 -0.231492 -0.689645 0.686150
-0.374526 -0.881958 -0.004370 0.943894 -0.317362 -0.091355
-0.134959 -0.464711 -0.160736 0.058564 -0.198142 0.978422
0.439045 -0.515826 0.100330 0.804224 -0.594146 -0.014618
0.338973 -0.419200 -0.157169 -0.669599 0.536372 -0.513753
-0.430093 -0.797742 0.010059 -0.501949 -0.832295 0.235231
0.062596 0.310033 0.110894 0.995731 -0.087687 -0.028823
-0.177271 -0.184406 0.150536 -0.010501 -0.068550 0.997593
-0.028655 -0.784349 -0.162740 0.262045 -0.352172 -0.898503
0.317868 -0.122294 0.153905 -0.031008 0.287841 0.957176
0.141707 -0.646649 0.150224 0.000045 0.000018 1.000000
0.066861 0.198601 -0.051167 -0.464881 -0.872539 -0.150201
0.163578 0.106941 -0.143187 -0.110730 0.988266 -0.105208
0.391134 -0.879390 -0.034689 0.923862 -0.342933 -0.169929
0.186453 -0.003316 0.154363 0.751484 0.010576 0.659666
0.155297 0.205218 -0.048231 -0.189188 0.246661 0.950456
-0.143923 -0.918247 -0.159919 -0.481632 0.187502 0.856081
0.262301 -0.480340 0.155020 0.334669 -0.071591 -0.939612
0.099998 0.048002 -0.162359 -0.002330 0.002103 0.999995
0.408578 -0.490766 0.047291 0.871147 0.222437 -0.437750
0.344399 -0.632703 0.151549 0.249118 -0.294873 0.922491
-0.044915 0.952311 0.085521 -0.025339 0.004188 0.999670
0.002837 -0.995522 0.033906 0.880693 0.451010 0.144806
-0.083390 0.929614 0.120115 0.980180 -0.198058 -0.004377
-0.053875 0.541459 0.160825 -0.216766 0.283301 0.934212
0.253891 0.156212 -0.112462 -0.308391 -0.865583 -0.394539
0.274786 -0.748719 0.161749 -0.237203 -0.424078 0.874009
0.341775 -0.009049 0.061537 -0.598873 -0.459378 -0.655991
0.006182 0.851739 0.087415 0.068945 -0.028248 -0.997220
-0.087532 -0.247854 -0.143796 -0.692570 0.665781 0.277638
-0.014667 -0.188683 0.127872 -0.363708 -0.922146 -0.131769
0.089060 0.854527 0.103072 0.989114 0.028304 -0.144402
0.079946 0.732201 0.106059 0.974028 0.220485 0.051541
-0.070412 -0.807380 -0.162827 -0.005943 0.002245 0.999980
-0.335787 0.026123 0.045671 0.943573 -0.129849 -0.304645
0.101780 -0.966179 -0.159366 0.013660 -0.102462 -0.994643
-0.285157 -0.095739 0.149315 0.113621 -0.018118 0.993359
0.005241 -0.925292 0.149708 -0.013381 0.138760 0.990236
-0.033985 -0.097366 0.145725 0.452649 0.848330 -0.274673
-0.035394 -0.455098 -0.147119 0.390951 0.893526 0.220835
0.211042 -0.141985 0.164689 0.237959 0.908585 -0.343291
-0.099461 -0.844261 0.150254 0.625571 -0.020581 0.779896
-0.067523 0.215098 0.041372 0.915487 -0.388884 0.103215
-0.232558 0.174646 0.111164 0.458177 -0.330504 0.825131
-0.010494 -0.612864 -0.158834 -0.179721 0.127765 0.975385
0.450231 -0.586919 0.055694 0.985718 0.113118 -0.124757
0.056376 0.576137 0.161270 0.989241 0.110965 -0.095335
-0.325469 -0.616480 -0.142960 0.803726 0.588515 -0.087600
0.280121 -0.330792 -0.150126 0.386421 -0.723945 0.571474
-0.029766 -0.341420 -0.162819 -0.000117 0.000044 1.000000
0.051432 0.250524 -0.033511 -0.704187 -0.694744 0.146462
0.090395 0.855770 0.140679 0.265810 0.440395 0.857553
-0.036357 0.002347 -0.162737 -0.031775 0.114465 -0.992919
0.253321 -0.061989 -0.149662 0.941433 -0.321686 -0.101102
0.057024 0.623418 0.162282 0.249731 0.298177 -0.921263
0.303007 -0.876785 0.167918 -0.723418 0.687729 0.060787
-0.307603 -0.282584 0.130939 -0.664531 0.638141 0.388812
0.089924 -0.989420 -0.016769 0.339899 0.139554 -0.930050
0.308448 0.092264 0.076998 -0.687730 -0.725222 -0.032862
0.417214 -0.505355 -0.009078 0.874041 0.485835 0.003949
-0.004326 0.158935 -0.162813 -0.028292 0.179899 0.983278
0.226331 0.129632 0.161887 0.437947 0.846901 -0.301598
-0.285522 -0.656172 0.167557 0.964022 0.236697 0.120976
0.023915 -0.568671 0.161025 0.483913 -0.864902 0.133314
-0.198377 -0.894618 0.167040 0.931416 -0.169544 -0.322054
-0.308116 -0.195689 -0.126939 0.986855 -0.068016 -0.146600
-0.247603 0.126684 -0.160288 -0.063472 0.097269 -0.993232
0.305976 -0.266512 -0.130951 0.907569 0.359107 -0.217627
-0.348791 -0.894934 0.137926 0.767262 0.641226 0.011728
0.158354 -0.329415 0.152144 0.516246 0.099103 0.850687
-0.181448 -0.347235 0.150224 -0.000019 -0.000001 1.000000
-0.301605 -0.318901 -0.159438 -0.234416 0.132407 -0.963077
-0.153797 -0.882851 -0.142829 0.683910 -0.322066 -0.654630
0.221475 -0.449910 0.164572 -0.077382 -0.960678 0.266663
0.059776 0.236136 -0.058082 0.995206 -0.062991 0.074822
-0.008438 -0.768082 -0.162156 -0.013767 -0.023922 0.999619
-0.093961 -0.290227 0.150224 0.050275 -0.068201 -0.996404
0.340917 -0.614794 0.161197 0.174244 0.283398 0.943040
-0.045801 0.517837 0.161495 0.235561 -0.017756 -0.971697
0.293593 -0.879737 0.169845 0.584677 -0.806888 0.084168
-0.118499 -0.512989 -0.162825 0.033271 -0.018389 0.999277
0.111238 0.191912 0.127052 -0.190383 -0.980359 -0.051485
0.029687 -0.838011 -0.160039 0.654684 -0.388617 0.648357
-0.197705 -0.914290 0.167540 0.808224 0.498830 -0.312958
-0.061457 0.213571 -0.118553 -0.131405 -0.785379 0.604907
0.392149 -0.861437 -0.025195 0.837491 -0.531465 -0.127092
-0.333975 -0.819482 -0.145351 -0.013323 -0.128013 -0.991683
0.359573 -0.828602 0.149652 -0.000082 -0.022008 0.999758
0.279301 -0.351248 0.166670 -0.015151 -0.892036 0.451710
0.378610 -0.798276 0.149396 0.116837 0.787238 0.605480
-0.294687 -0.942317 -0.054559 0.917277 -0.079404 0.390253
-0.129461 -0.788821 -0.162733 0.006556 0.048228 0.998815
-0.190099 -0.310291 0.155393 -0.073916 -0.087202 -0.993445
0.338112 -0.092875 0.046127 0.852612 -0.053470 0.519802
-0.180121 -0.344426 -0.162752 0.226543 0.150798 -0.962257
-0.305799 -0.271537 -0.068099 0.939185 -0.342650 0.022874
0.225578 0.064166 0.156620 0.506329 -0.160886 -0.847199
-0.313708 -0.281748 0.109211 0.917173 -0.054650 0.394725
-0.048719 0.031087 -0.142844 -0.672865 0.732255 0.105149
0.101748 -0.999607 0.093200 0.089728 -0.982921 0.160670
-0.388782 -0.870749 -0.036627 -0.428336 -0.847620 -0.313159
-0.060926 -0.138111 -0.162828 0.004968 0.003983 0.999980
0.230860 -0.507626 -0.162826 0.024792 0.343185 0.938941
0.000549 0.520249 0.181749 -0.156390 -0.901637 0.403229
0.050115 -0.099578 0.121901 -0.140589 -0.751098 0.645048
-0.110839 0.186689 -0.115670 -0.511415 -0.522619 0.682147
0.209945 -0.976911 0.144790 0.262222 -0.931164 0.253324
0.014744 0.704774 0.103297 0.363102 -0.878064 0.311706
0.093716 -0.819463 -0.142844 0.920138 -0.174412 -0.350610
0.100094 0.192893 0.120451 0.005569 0.842695 0.538363
0.320896 -0.186257 0.050972 -0.235881 0.030454 0.971305
0.328195 0.043886 -0.055267 0.977755 0.209650 -0.006484
0.035144 -0.291042 -0.162819 0.149275 -0.099329 0.983794
-0.329353 0.042888 0.073341 0.976303 -0.211547 0.045621
0.332183 0.023669 -0.043239 0.936733 0.349576 -0.018099
0.224861 -0.419851 -0.155989 -0.218699 -0.967419 0.127557
0.019676 1.004163 0.157008 0.650536 0.572212 0.499376
-0.314418 -0.851243 -0.158131 0.051690 0.619620 0.783198
0.335086 0.017591 -0.059529 0.913640 -0.321478 0.248824
0.292829 -0.753962 -0.162809 0.004776 0.008524 0.999952
0.251084 -0.968913 -0.136860 0.370487 -0.917667 -0.143615
-0.401423 -0.486215 -0.158111 0.214955 -0.273172 0.937641
-0.449688 -0.662765 -0.155158 -0.723442 0.297025 -0.623223
0.193361 -0.134007 -0.158272 -0.000026 -0.042732 0.999087
-0.273560 -0.133882 -0.155603 0.115695 0.496147 0.860495
-0.018584 -0.606913 -0.162827 -0.069064 -0.006545 -0.997591
0.012184 0.991137 0.169315 0.742316 -0.366076 -0.561209
0.321588 -0.226345 0.120919 0.502921 -0.263869 0.823070
0.206332 0.040380 0.150364 -0.195416 -0.029459 -0.980278
-0.284144 -0.514292 -0.162814 -0.465438 -0.531773 0.707519
0.362986 -0.400790 0.005287 0.898458 0.439059 0.000607
0.074047 0.962636 0.145501 0.660869 -0.502422 -0.557516
0.334634 -0.425092 -0.159274 0.209075 -0.612665 0.762187
0.345855 0.039106 0.149097 -0.253481 -0.885296 0.389871
-0.206039 0.189352 0.016720 0.348086 -0.039234 0.936641
0.469735 -0.737039 0.134488 -0.128629 0.688399 0.713836
0.201538 0.175997 -0.105862 0.357307 0.927443 -0.110367
0.455847 -0.594130 -0.032890 -0.492905 0.650031 -0.578364
-0.143768 -0.732712 0.159211 -0.085511 -0.079720 -0.993143
-0.139972 0.184833 -0.064201 0.071776 -0.939767 0.334195
0.319272 -0.395044 0.162422 0.350363 0.503997 0.789451
-0.197275 -0.399754 -0.147845 0.174070 0.362900 -0.915425
-0.074218 -0.962079 0.149067 0.032159 0.001047 0.999482
-0.303647 -0.219284 -0.104279 0.994023 0.075773 0.078596
0.001160 0.971748 0.154413 0.272599 0.051963 0.960723
-0.001369 -0.890827 -0.162827 0.129325 -0.010980 0.991541
-0.455673 -0.633166 0.075657 0.975015 -0.219287 -0.035483
0.040287 -0.096150 -0.162775 -0.025691 0.007031 0.999645
0.082894 0.195468 0.150507 0.382146 0.910751 0.156519
-0.239681 -0.483953 -0.162827 -0.342179 0.219831 0.913558
0.219732 -0.979488 -0.065944 -0.015765 0.987201 0.158701
0.253247 0.156377 -0.133831 0.435974 0.899960 -0.000137
-0.304475 -0.213381 0.021691 0.990992 0.127623 0.040580
-0.031334 -0.000186 -0.162821 0.001730 -0.003986 0.999991
0.336833 -0.029070 -0.160579 0.765954 -0.219845 -0.604138
0.185976 -0.043967 -0.162826 0.000008 0.000093 1.000000
0.125637 -0.204408 0.158983 -0.808230 -0.286285 0.514593
-0.267697 0.144704 -0.052373 0.970708 -0.217416 -0.102257
-0.102863 -0.743740 -0.151786 0.975643 0.192664 -0.104891
0.171148 -0.519426 0.150237 0.000786 0.013900 0.999903
-0.036244 0.392435 0.175142 0.592862 -0.698448 -0.400857
0.207033 -0.329670 -0.162726 -0.310570 -0.138053 0.940472
0.016390 -0.761822 -0.152682 0.167032 0.246906 0.954535
-0.340492 -0.014966 0.067731 0.975975 -0.216101 0.027812
0.154698 0.128775 0.169696 0.304653 -0.665124 -0.681761
-0.309750 -0.285428 0.063898 0.964727 -0.255831 -0.062074
0.168893 -0.468882 -0.160990 -0.016314 0.099272 0.994927
0.056319 0.241362 0.002497 0.956837 0.290452 0.010003
-0.176642 -0.430709 -0.145449 0.129740 0.972541 -0.193212
-0.141444 -0.316374 0.150227 -0.001399 0.000974 0.999999
0.143120 -0.939595 0.156366 -0.110293 -0.910664 0.398153
-0.191254 -0.458070 0.159611 0.860518 -0.189632 -0.472810
0.082104 0.215048 0.092064 0.932761 -0.055290 0.356230
-0.271721 0.151224 -0.110128 -0.008412 -0.263171 0.964713
0.282971 -0.445774 0.160370 -0.118874 -0.091477 0.988686
-0.121185 -0.147177 -0.162737 -0.087472 0.275579 0.957290
-0.334073 -0.013073 0.105614 0.975314 -0.090434 0.201455
-0.339435 -0.063566 0.050898 0.994187 0.099649 -0.040773
-0.193600 -0.063329 0.150275 0.875701 -0.178152 -0.448787
0.340833 0.070523 -0.090237 -0.002617 -0.455273 0.890348
-0.027535 0.703244 0.091277 0.140560 -0.352423 0.925225
0.122057 -0.578001 -0.156671 -0.668304 -0.191688 0.718767
0.140661 0.051761 -0.144555 -0.692300 -0.056682 -0.719380
0.054399 0.259285 0.037604 -0.210382 -0.883369 0.418805
0.255495 -0.205909 -0.162056 -0.018137 0.005360 0.999821
-0.148190 -0.720556 -0.149070 0.219495 -0.557167 -0.800866
-0.013163 0.199699 -0.146470 0.147958 -0.873455 0.463881
0.005997 0.284154 0.028934 0.917758 -0.003807 -0.397123
-0.227787 -0.450281 -0.160529 0.455871 -0.649436 0.608617
0.366385 -0.402383 -0.108270 0.825415 0.551744 -0.119447
0.247995 -0.003579 0.152824 -0.042949 0.145152 -0.988477
0.378045 -0.431843 0.094317 0.882923 0.468504 0.030844
0.086984 0.000576 -0.162827 0.000691 0.002826 0.999996
0.386741 -0.493761 -0.159191 0.065512 0.092731 -0.993534
-0.445721 -0.593088 -0.044163 0.926719 0.189706 -0.324352
0.249367 -0.216512 -0.161802 -0.026793 0.007963 0.999609
0.097448 0.717516 0.107808 0.139698 0.933878 -0.329176
-0.404073 -0.829175 0.076356 0.564634 -0.437606 -0.699778
0.034762 -0.854064 -0.154679 -0.411417 -0.500373 -0.761816
-0.458119 -0.703566 -0.006722 0.988931 0.147327 -0.017600
0.400144 -0.473146 -0.104688 0.880843 0.471750 -0.039599
0.066912 0.055842 0.158806 0.999500 -0.031201 0.005118
-0.439059 -0.536500 -0.108393 0.874004 -0.485909 0.003126
-0.081522 -0.998809 0.095409 -0.028636 -0.999196 0.028062
-0.344760 -0.357426 -0.087482 0.925024 -0.366764 0.099064
-0.048687 0.462737 0.148600 0.800927 0.333393 -0.497358
-0.333321 -0.461372 -0.142403 0.952058 0.302536 -0.045369
0.218989 -0.392831 -0.162828 -0.155587 0.190551 0.969269
-0.165978 -0.992425 -0.030059 -0.587329 -0.778831 -0.220152
0.265798 -0.462960 0.156101 0.131001 0.013955 0.991284
-0.021980 0.855596 0.104031 0.739271 0.673144 0.018884
-0.152533 -0.259807 -0.161916 -0.007054 -0.007281 0.999949
0.052308 -0.049596 0.176407 0.105237 -0.188478 0.976423
0.445354 -0.757173 -0.130951 0.969303 -0.205624 0.134799
0.000128 0.245921 -0.105216 0.089930 -0.883029 0.460621
0.357959 -0.611555 0.149916 0.016560 0.003373 0.999857
0.300207 0.103823 0.003726 0.765768 0.642553 0.026930
-0.440907 -0.562393 0.153236 0.422386 -0.784350 0.454297
-0.251607 -0.867945 -0.162035 0.028233 0.119889 0.992386
0.065538 -0.860410 0.152824 0.218718 0.290046 -0.931684
0.461309 -0.739012 0.135434 -0.069159 0.988914 0.131398
0.206311 -0.023850 0.150225 -0.000228 0.000188 1.000000
-0.182366 -0.242106 0.165823 0.581828 0.099597 -0.807191
0.083924 -0.676685 -0.162802 -0.008696 -0.039570 0.999179
0.296107 -0.840056 0.150226 0.006220 -0.010232 0.999928
0.048633 0.970477 0.085287 -0.086199 -0.290626 0.952946
-0.313278 -0.293641 0.009990 0.934451 -0.356084 -0.002300
0.326554 0.048255 -0.081731 0.991066 0.070061 0.113485
-0.093488 -0.261220 0.121902 -0.326913 0.759938 -0.561802
0.259845 -0.857396 0.150584 -0.003175 0.014055 0.999896
-0.026196 0.194509 -0.153153 -0.163551 -0.923282 -0.347564
0.058036 -0.516567 0.170199 0.916925 0.149704 -0.369914
-0.034827 0.696993 0.155955 -0.576891 -0.650835 -0.493569
0.290173 -0.915199 -0.161360 0.046866 -0.060173 -0.997087
-0.409368 -0.825853 -0.127528 0.761881 0.515311 0.392419
0.177776 -0.896529 -0.162720 0.126983 -0.720640 -0.681582
