ply
format ascii 1.0
element vertex 838
property float x
property float y
property float z
property float nx
property float ny
property float nz
end_header
-0.986692 3.708580 -1.896776 -0.093484 0.078437 -0.992526
0.951073 2.661762 1.352289 0.492936 0.819216 0.293085
-0.303490 -3.099431 -2.023359 0.102234 0.362653 -0.926300
0.042213 2.414690 2.009861 -0.002082 -0.278072 0.960558
2.093958 -1.452244 -0.510114 0.939168 0.259177 0.225366
2.178910 -3.124731 -0.975696 0.992950 0.043425 -0.110288
1.339504 3.564603 -0.982498 0.986214 0.146798 0.076364
-0.883242 1.759048 2.086547 -0.607941 0.137802 0.781932
0.587760 -1.670744 -2.012501 0.070171 -0.159096 -0.984766
1.130417 4.446808 -0.888254 0.996174 0.000811 -0.087386
-1.254090 -1.314189 1.535065 -0.639732 0.095562 0.762634
-1.836813 -1.036420 -0.456019 -0.749681 0.028263 0.661195
1.496216 3.213212 -1.508194 0.994040 -0.035092 0.103210
-1.254790 1.900213 -0.693169 -0.991047 -0.125209 -0.046351
-1.180162 -4.455187 -2.308274 -0.204815 0.030756 -0.978317
1.297034 1.333008 -0.505515 0.999288 -0.036282 0.010380
1.331678 1.662851 1.308156 0.995658 -0.061184 -0.070154
1.949166 -0.416427 -1.921401 0.718717 -0.167023 -0.674943
-2.180805 -3.646518 0.103973 -0.985242 -0.156460 0.069409
1.986905 0.333032 -1.741881 0.950454 0.022556 -0.310046
-0.512519 -0.244881 -2.086627 0.028212 0.011426 -0.999537
-1.203267 -1.825888 1.657236 -0.658206 0.223634 0.718855
0.839998 -4.896934 -1.793046 0.106553 -0.994089 -0.020830
-0.849411 -5.119985 -0.358841 -0.000844 -0.762262 -0.647268
0.084466 -4.062197 2.347225 -0.111161 -0.353902 0.928653
1.488458 0.934069 -0.241799 0.996490 -0.064488 -0.053382
-1.999104 -4.876456 -0.486796 -0.617972 -0.784254 0.055283
1.370283 3.595294 -0.053247 0.999092 -0.018651 0.038302
-1.484698 3.488344 -1.465002 -0.998951 -0.045727 -0.002273
1.494052 2.651843 -1.420197 0.873725 0.333430 -0.354161
1.098335 -4.805401 0.107218 0.151543 -0.981639 0.115839
-1.767896 -1.787326 -1.975609 -0.242784 -0.186504 -0.951983
-0.095165 -4.833102 0.795846 0.365420 -0.901588 0.231534
1.187480 0.607537 1.039289 0.974093 -0.150276 0.168998
1.932502 -0.220178 -1.888709 0.842035 -0.055244 -0.536586
-2.017851 -4.749361 -1.051492 -0.994126 -0.092779 0.055732
-1.269988 2.526690 -0.297624 -0.999116 0.007605 0.041345
-0.384658 -2.740766 2.374333 -0.116376 0.153050 0.981342
0.525057 -4.885848 -1.489102 0.189187 -0.897106 -0.399261
1.852475 -0.059559 -1.271898 0.999182 0.024795 -0.031959
1.350341 2.010236 -0.414085 0.999599 -0.015529 -0.023666
-0.096431 -4.189734 2.295091 -0.090547 0.007573 0.995863
-0.169499 -1.062267 -2.060981 0.028826 0.273375 -0.961475
0.153180 4.919803 -0.387487 0.021240 0.999655 -0.015460
1.678368 -1.056079 1.200500 0.902876 0.004600 0.429876
1.463943 0.478351 -0.090583 0.245351 0.950240 0.191955
-2.061715 -4.522223 -0.119155 -0.962659 0.206505 0.175050
1.981429 0.591126 -1.065058 0.925461 0.359022 0.120932
1.152163 1.519519 -1.743450 0.749748 -0.037181 -0.660678
-0.588300 3.789213 -1.935044 -0.125025 0.129290 -0.983693
-0.660820 -2.518360 -1.942559 -0.050423 -0.201159 -0.978260
-0.232288 -4.885544 -2.270169 0.005153 -0.583456 -0.812128
-1.167341 1.245752 1.445148 -0.978836 -0.180064 0.097247
2.146344 -1.970426 -0.888004 0.999718 0.023602 0.002625
-0.926852 -3.757669 -2.178539 -0.244157 0.340420 -0.908021
1.881217 -1.288864 0.233121 0.999946 -0.005373 0.008885
-1.269462 2.472200 -0.274883 -0.999116 0.007605 0.041345
0.016512 1.967516 2.183185 -0.122232 0.851711 0.509556
1.862093 -0.952202 0.580378 0.970344 0.109898 0.215301
-0.694652 2.691998 1.526281 -0.411922 0.905866 -0.098627
2.114479 -3.327446 0.592306 0.952787 0.163594 0.255799
0.666626 0.057013 1.507174 0.258669 0.157620 0.953019
0.021305 -4.795063 -1.058797 -0.027243 -0.979694 0.198641
1.863126 -1.419862 -0.112829 0.938571 -0.035804 0.343224
-2.263195 -3.660810 -0.997618 -0.996893 0.069681 0.036726
1.195033 4.350051 -1.665855 0.635689 0.707829 -0.308023
0.066888 4.957006 -0.329087 -0.011004 0.999908 -0.007935
1.597165 -1.916224 -1.915292 0.169797 -0.146116 -0.974587
-0.557432 1.171804 2.252037 -0.327169 0.075964 0.941908
1.746992 -3.503543 1.515266 0.748132 -0.391932 0.535432
1.214893 4.312258 -1.822721 0.432346 0.519354 -0.737122
0.828856 -2.318785 2.231973 0.261274 0.427958 0.865210
0.510021 -1.576883 -2.019947 0.013028 0.053850 -0.998464
0.238693 -0.834312 -2.270512 0.004324 0.045205 -0.998968
0.689134 0.956231 2.266614 0.385126 -0.383988 0.839185
-1.343613 -4.258331 1.650684 -0.601132 -0.491443 0.630178
-1.817176 -2.289979 -0.158638 -0.963403 0.145195 -0.225327
2.120208 -4.595407 -1.693344 0.977091 -0.127639 -0.170296
-0.172323 0.011160 -2.072989 -0.013759 0.063173 -0.997908
0.776213 -4.856016 0.538657 0.328267 -0.909980 -0.253331
0.575042 2.397789 -1.967615 0.025673 0.024380 -0.999373
-1.269657 2.437616 -0.125786 -0.997841 -0.065478 -0.005067
1.785576 -2.618447 -1.683129 0.342303 -0.380857 -0.858939
-0.749597 -5.069619 0.046465 -0.082551 -0.736080 0.671842
2.023634 -0.856611 -1.595011 0.986443 -0.007095 -0.163948
-1.474320 -0.601863 -1.824862 -0.127505 0.073919 -0.989080
-2.069929 -3.593289 0.550310 -0.925510 0.110418 0.362269
-0.115882 -1.136151 -2.241755 0.014137 -0.161483 -0.986774
-0.907368 -1.296738 -2.028250 -0.019302 -0.204642 -0.978647
-0.585561 -2.452375 2.243118 -0.283632 0.248959 0.926052
0.178348 4.929164 0.011067 -0.099757 0.986594 -0.129156
-0.862258 -4.993782 -1.166276 0.190976 -0.975083 0.112880
0.462923 -2.832877 -1.906696 0.129897 0.282659 -0.950384
0.417165 -4.208652 -2.384515 0.038678 0.001348 -0.999251
1.911557 -0.170600 -0.537574 0.607929 0.062301 0.791543
-1.965940 -4.839384 -1.686924 -0.296282 -0.950643 0.092163
1.278897 -2.253698 -1.883989 0.191508 -0.203663 -0.960128
-1.003164 2.906302 0.688864 -0.389903 0.608567 0.691103
1.987062 -4.863533 -1.859029 0.333239 -0.903776 -0.268591
-2.016874 -1.989295 -0.553108 -0.910779 0.112082 0.397389
0.031033 4.950228 -0.484666 -0.017362 0.988939 -0.147302
1.872692 -2.189069 0.153917 0.987930 0.151140 -0.033919
-0.444062 0.765430 2.088644 -0.276911 -0.754382 0.595171
1.441244 -3.838774 1.984106 0.630935 -0.180075 0.754648
1.109282 0.107963 1.383088 0.447981 0.353489 0.821193
-1.281514 -3.793129 -2.079229 -0.215610 0.299269 -0.929489
0.271080 -2.049749 -1.981678 0.112685 -0.204682 -0.972321
1.880360 -3.561059 0.633923 0.937063 -0.212133 0.277333
1.024733 0.370473 -2.000864 0.108485 0.343633 -0.932817
-0.351271 3.081279 1.751318 -0.853455 0.512501 0.094644
0.860187 -4.817595 0.942987 -0.048562 -0.945110 -0.323123
0.730869 4.923493 0.114202 0.102679 0.994050 0.036357
-1.071540 -4.847578 -0.144144 -0.162282 -0.958443 -0.234631
-0.574623 4.684744 0.287873 -0.139105 0.963998 0.226622
-0.305958 -4.974851 -1.290230 0.079252 -0.953310 0.291411
-0.854774 -4.830953 -2.015932 0.073246 -0.985181 -0.155094
1.552663 3.490261 -1.399524 0.977392 0.089174 -0.191712
-0.683966 -4.467347 2.063801 -0.126845 -0.259609 0.957347
-1.030371 1.113193 1.828437 -0.882888 -0.405835 0.236234
-1.822392 -0.310770 0.127432 -0.973631 0.193590 0.120691
-1.629258 -4.239002 1.301979 -0.822521 -0.390113 0.413850
1.128204 -4.856150 0.765491 0.082208 -0.978636 0.188452
-1.463461 4.013500 -1.709347 -0.942243 0.153147 -0.297866
-0.430549 2.849247 1.454342 -0.802008 0.596414 0.032760
-0.724873 -4.948585 -0.853184 0.207574 -0.849355 -0.485293
-1.659234 -4.827231 1.084021 -0.559823 -0.825047 0.076787
0.722001 -4.741408 2.013870 0.777465 -0.379300 0.501677
1.019866 -2.271752 2.128406 0.384374 0.312605 0.868640
1.166868 -0.258745 1.466239 0.592972 0.284700 0.753213
1.510476 4.429343 -0.372978 0.982480 0.155189 0.103198
-0.306718 2.966048 1.871554 -0.816069 0.559467 0.145012
1.160431 1.093113 0.209733 0.999913 -0.009806 0.008841
1.488518 -4.898183 -1.768328 -0.003639 -0.999404 -0.034331
-0.869605 2.497309 1.577405 -0.974306 0.138647 0.177496
0.753580 2.750522 1.303547 0.082300 0.770873 0.631650
-2.067217 -0.921240 -1.330453 -0.998994 -0.044538 -0.005138
-0.645253 0.038553 -2.078660 -0.036132 -0.085109 -0.995716
-0.660629 -1.200888 -2.052325 -0.162784 -0.002773 -0.986658
1.137517 4.877056 -0.379498 0.530685 0.786404 0.316136
1.371928 3.414700 -0.481239 0.995775 0.084534 -0.035858
-0.044269 3.908317 0.521285 -0.266998 0.704073 0.658022
0.830685 -4.859742 -2.332105 0.077135 -0.057329 -0.995371
0.462184 0.276740 1.588200 0.267791 -0.593901 0.758663
-1.748557 0.696476 -1.054506 -0.332310 0.928298 0.166836
1.407629 -3.830394 -2.021978 0.178695 0.279903 -0.943251
-1.180869 -3.347433 1.944292 -0.662584 -0.118701 0.739522
-2.209866 -2.656094 -1.194875 -0.993440 0.074898 -0.086414
1.625066 -4.469933 0.843176 0.903854 -0.242978 0.352150
1.285933 0.871293 -0.041333 0.999805 -0.018754 0.006208
-1.851455 -3.149455 1.409411 -0.813108 -0.116149 0.570408
-0.866828 -4.847816 1.758038 -0.021099 -0.977752 0.208703
2.036071 -3.545065 0.893028 0.885639 0.176404 0.429564
-1.426393 -0.785272 -2.039831 -0.019302 -0.045197 -0.998792
-1.309178 -4.751014 -2.300786 -0.209673 -0.193950 -0.958343
1.917345 -1.296390 -1.799402 0.444606 -0.056023 -0.893973
-1.206133 -4.805126 -1.012529 0.201245 -0.963508 -0.176502
1.238443 1.463468 -1.519117 0.987234 0.000428 -0.159279
-0.130673 -2.076221 -1.942837 0.112215 0.069692 -0.991237
-0.489234 -4.839090 0.207434 0.223370 -0.964790 0.138876
-1.802457 -3.496572 -1.593593 -0.537109 0.450146 -0.713360
2.127427 -1.804908 -0.870510 0.996400 0.079787 0.028652
0.516654 2.328343 1.928984 -0.200207 -0.504339 0.839976
-1.951764 0.435559 -1.072031 -0.961335 0.236923 0.140364
0.838763 -3.384544 -1.991826 0.131338 0.241749 -0.961409
0.456160 1.176618 -1.997330 0.092776 -0.028496 -0.995279
1.410086 -4.849268 0.105477 -0.141462 -0.989606 -0.025839
1.205391 0.548686 0.917034 0.983244 -0.060834 0.171843
0.713468 -4.857244 1.395201 -0.013446 -0.988512 -0.150543
1.376650 3.592554 -0.225028 0.992918 0.058434 -0.103433
1.991509 -3.606599 -1.306571 0.876871 0.315256 -0.362921
-0.026499 -4.836051 1.471462 0.170114 -0.953678 0.248114
1.353585 3.143222 -0.750746 0.992628 0.058950 -0.105895
-1.252418 -4.902212 -1.424777 0.169708 -0.981524 0.088379
1.472275 2.977267 -1.870310 0.593272 -0.157683 -0.789408
1.299964 1.985030 -1.205571 0.973890 -0.222365 -0.045745
2.011878 -4.129971 0.087428 0.964308 -0.014869 0.264366
-2.119820 -1.664603 -1.058585 -0.989194 0.138761 0.047328
-0.941354 -1.265208 -2.034034 -0.019302 -0.204642 -0.978647
-1.241921 3.695257 -0.261024 -0.998881 -0.034324 0.032553
0.884847 1.489846 2.044554 0.358477 0.034651 0.932895
-1.048444 -3.938924 2.041682 -0.435449 -0.460349 0.773604
1.891266 -1.111821 0.747305 0.977212 -0.000678 0.212264
0.191662 -4.865145 -2.278284 0.012763 -0.602237 -0.798216
-0.228335 -0.172879 -2.087790 0.099543 0.051773 -0.993685
-1.083092 4.916233 -0.912942 -0.469450 0.882944 0.005082
2.160080 -3.780962 -0.791068 0.950829 -0.309380 -0.014451
-0.854645 1.800393 1.884718 -0.522283 0.224100 0.822800
-0.751206 -2.491820 2.072301 -0.409618 0.228752 0.883111
-0.994988 4.926575 -1.097657 -0.058731 0.992414 -0.108002
-1.903054 -0.819914 -1.736992 -0.967542 0.236791 -0.088271
1.534553 -4.827412 -2.194964 0.178751 -0.465020 -0.867067
-1.814038 -0.388301 -0.591719 -0.684764 0.090172 0.723165
-0.716723 0.863306 -2.049515 -0.063603 -0.167889 -0.983752
-2.163315 -4.000430 -0.537145 -0.861089 -0.507647 -0.028631
-1.317045 -4.523768 -2.281791 -0.264640 0.297317 -0.917370
1.577250 -0.190985 -1.925479 0.131881 -0.188361 -0.973205
-1.567690 0.320725 0.336234 -0.258692 0.912152 0.317896
1.334113 1.410956 0.368800 0.997655 -0.054147 0.041859
-1.797158 0.497553 -2.022200 -0.188040 0.025260 -0.981836
1.977245 -4.522819 -0.121767 0.958499 -0.101800 0.266302
-0.913465 -4.851565 1.419883 0.015674 -0.999762 0.015154
-0.201731 -4.857205 1.071311 0.358963 -0.921051 0.151034
1.279539 0.761947 -0.372946 0.944354 0.328343 0.019667
-0.765290 0.338867 1.340711 -0.715473 -0.014343 0.698493
-1.169857 -2.225346 1.851963 -0.634561 0.202086 0.745985
0.738837 0.542202 -2.006790 0.029736 0.061179 -0.997684
-1.474661 -3.786791 -2.030036 -0.432697 0.277947 -0.857624
0.581389 -1.886506 -1.909296 -0.030174 -0.213998 -0.976368
-1.182857 4.654825 -0.890420 -0.985916 0.150437 -0.073070
-1.245769 4.033867 -0.799613 -0.999483 0.028078 0.015660
1.544752 2.990827 -1.374006 0.708095 0.173931 -0.684361
0.781643 3.267829 -1.891459 0.066414 0.024675 -0.997487
-1.786138 0.640466 -1.073716 -0.315731 0.940560 0.125145
-0.007263 -1.175909 -2.044079 0.036550 -0.161571 -0.986184
-1.551409 -4.914726 -1.114122 0.078146 -0.996762 0.018949
1.292408 -4.234194 1.878101 0.677845 -0.301103 0.670718
-1.772457 -1.881726 0.812276 -0.948506 -0.005000 0.316720
-1.233541 2.642674 0.709079 -0.995831 -0.075572 0.051075
0.155079 1.041319 -2.020940 0.069250 -0.043784 -0.996638
0.214568 0.987238 2.342678 0.126390 -0.110512 0.985806
-1.990788 -0.323980 -1.930939 -0.694559 0.205818 -0.689367
-1.320378 0.426964 0.208480 -0.274454 0.937560 0.213672
-0.366898 -1.339615 2.006823 -0.088617 0.269400 0.958942
0.489850 3.109522 1.501559 0.869208 0.466981 0.162501
1.799064 0.683234 -1.050425 0.282945 0.948181 0.144551
-1.264684 0.838712 -1.272636 -0.445201 0.855383 0.264794
1.740110 -3.370310 -1.582158 0.647773 0.267554 -0.713306
0.370248 2.056609 1.922959 0.052238 0.676552 0.734539
-1.061807 2.119174 1.533266 -0.555154 0.430660 0.711573
2.007206 -3.293531 -1.428754 0.639261 -0.432879 -0.635579
-1.209434 1.318604 0.701459 -0.993582 0.090502 -0.067852
1.935792 -1.699997 -0.762025 0.999508 -0.002090 0.031310
2.261424 -3.137865 -0.490161 0.999086 0.041924 0.008280
-1.769164 -4.877913 0.043165 0.014915 -0.991559 0.128796
-1.121145 0.781839 -2.035987 -0.107407 0.122701 -0.986615
-1.631038 -0.006264 0.236248 -0.951037 0.257842 0.170430
-0.037294 -4.628205 2.254753 -0.093897 -0.528234 0.843891
1.238341 1.701981 -1.461848 0.968278 0.072086 -0.239252
-0.173481 3.873878 0.487646 -0.499198 0.651721 0.571018
0.783099 -4.733297 0.274934 -0.288275 -0.955313 -0.065380
-1.815655 -0.067822 -0.573059 -0.927145 0.081141 0.365813
2.081905 -2.655400 -1.454296 0.621742 -0.230248 -0.748614
1.238939 -4.796519 -2.250087 -0.000263 -0.112934 -0.993603
0.206793 -0.560755 1.810857 -0.342797 0.049248 0.938118
1.113698 4.952274 -1.245730 0.374547 0.838087 -0.396642
-1.376786 -4.229387 1.640643 -0.601132 -0.491443 0.630178
-0.015219 -4.053316 2.336090 -0.243188 -0.106499 0.964115
0.877153 -4.769630 0.198723 -0.262221 -0.602940 0.753461
-0.416012 4.901495 -1.788391 -0.046286 0.788839 -0.612854
1.040160 -0.518005 -2.116612 0.038442 -0.094894 -0.994745
-1.081119 -1.666500 -2.015930 -0.013595 0.002988 -0.999903
-2.198089 -3.802882 0.160207 -0.990129 0.016412 0.139196
2.202678 -2.875659 -1.216132 0.996255 -0.013706 -0.085371
-1.460396 -4.973013 -1.437299 0.094452 -0.994908 -0.035163
-0.765716 3.106015 -1.937954 -0.097107 0.133325 -0.986304
0.313067 2.689827 2.321188 0.308569 -0.311460 0.898765
1.083228 -1.644725 -1.980072 0.084651 -0.120006 -0.989158
-1.949310 -4.905921 -0.722924 0.059970 -0.996878 0.051363
-1.524429 2.580921 -1.227986 -0.924808 0.236341 -0.298115
-0.709174 3.131844 -1.939856 -0.097107 0.133325 -0.986304
-1.148971 1.331830 -1.597183 -0.990776 -0.027201 -0.132755
-1.925190 0.598323 -1.041605 -0.900320 0.428778 0.074650
1.721250 -0.940677 1.058036 0.910165 0.129798 0.393385
0.965133 1.447884 -1.945795 0.303534 0.085755 -0.948954
-1.491284 -1.033460 1.199617 -0.842528 0.219551 0.491878
-0.169601 2.841830 1.744606 -0.816069 0.559467 0.145012
0.962355 -4.354474 -2.265529 0.312290 -0.039756 -0.949155
1.846763 -3.014296 1.385026 0.900370 -0.182765 0.394881
-1.680770 -4.057763 -2.026548 -0.369648 0.306891 -0.877028
2.196744 -2.486935 -0.609849 0.991012 0.133020 0.014145
-1.000771 -4.807405 0.432437 0.384214 -0.849783 -0.360900
1.989943 0.582669 -1.257661 0.964245 0.263184 -0.031081
-1.225874 4.309234 -0.944933 -0.999880 -0.008392 0.013035
-0.932936 -4.735927 -2.259810 0.022639 -0.862175 -0.506105
-2.071050 -1.138575 -1.130708 -0.991728 -0.125062 0.028902
-1.982078 0.142316 -0.974505 -0.991136 0.102528 0.084480
1.832191 -1.369958 0.786424 0.971090 0.093115 0.219803
-1.207374 4.510178 -0.715727 -0.991010 0.121867 0.055206
1.461718 -2.753817 1.922042 0.746137 -0.120084 0.654873
-0.740016 -0.248029 1.613278 -0.369606 0.233740 0.899309
-1.837411 -4.147379 0.911832 -0.852375 -0.241535 0.463808
0.995339 -2.062536 -1.810083 0.013772 -0.221804 -0.974994
0.590184 2.993779 1.133425 0.950935 0.205866 0.230958
-2.467553 -3.297211 -0.719526 -0.999710 0.023552 0.004975
1.654692 -4.432515 0.993260 0.897680 0.089050 0.431557
-2.123734 -1.487183 -1.274887 -0.982514 0.167931 0.080410
0.056995 1.474304 -2.008865 0.029996 0.036034 -0.998900
-1.223989 2.013205 1.335943 -0.996112 0.028121 0.083492
2.178075 -2.309156 -1.005571 0.995967 0.057118 -0.069195
0.125233 -4.782528 0.877948 -0.028500 -0.681173 -0.731568
-2.212131 -3.283788 -1.333976 -0.807968 -0.198734 -0.554700
2.193891 -2.417151 -0.843049 0.982210 0.182726 -0.043304
2.027183 0.216262 -1.347760 0.999727 0.014551 0.018279
-1.311671 3.816536 -1.463829 -0.838145 -0.200238 0.507364
2.064789 -4.378601 -1.827008 0.903249 -0.060534 -0.424826
0.210019 -2.261535 -1.761537 0.163526 0.117048 -0.979571
-1.547823 -2.982129 1.620078 -0.795201 0.111396 0.596025
0.043840 -4.980301 0.822330 -0.333888 -0.859190 0.387701
1.180945 1.702711 -1.715738 0.834859 -0.037198 -0.549205
1.518236 -3.591578 1.460777 0.874611 -0.022090 0.484323
-0.429340 -3.154210 -2.045990 -0.024973 0.143678 -0.989309
0.179316 1.864007 2.052423 -0.132114 -0.079508 0.988041
2.187451 -3.544873 -1.003122 0.814266 -0.361544 -0.454155
-2.172631 -2.220149 -0.791910 -0.980657 0.174589 0.088485
0.894607 -4.746833 -2.284687 0.227439 0.051483 -0.972431
-1.275280 -0.674292 1.454908 -0.630348 0.237413 0.739119
0.856034 -3.677712 -2.117771 0.178118 0.409491 -0.894758
1.916455 -2.516450 0.799751 0.606587 0.744328 0.279335
-1.194344 1.387812 -1.024338 -0.988117 -0.141815 -0.059273
-2.032973 -1.981226 -1.550565 -0.996058 0.072023 0.051775
-1.537829 -2.898693 -1.824028 -0.075757 -0.183995 -0.980003
0.873108 1.654930 -1.958646 0.153330 -0.072675 -0.985499
1.523659 -1.752942 -1.902522 0.054518 -0.021826 -0.998274
0.647527 2.981938 -1.949207 0.024426 0.267256 -0.963316
1.310502 1.446372 0.971204 0.993754 -0.107077 0.031427
-1.167322 1.028406 -0.347515 -0.994679 -0.103006 -0.001861
2.175967 -2.288767 -0.744952 0.999207 0.006773 0.039239
-1.834933 -5.155401 -0.409389 0.371970 -0.741756 -0.558065
0.630304 0.218374 -2.012528 0.045308 0.056707 -0.997362
-1.753376 0.317107 -1.951300 -0.732302 0.027525 -0.680424
0.920997 4.405174 0.407084 0.627201 0.365317 0.687868
0.782723 -1.207911 1.843766 0.315104 0.198501 0.928066
0.564935 1.993389 2.033767 0.222404 0.776667 0.589342
-0.606811 3.412461 0.375948 -0.085720 0.735029 0.672595
1.068816 -4.833514 -1.261877 0.016898 -0.966532 0.255991
0.646413 1.779463 -2.186883 0.096662 -0.209327 -0.973056
1.952802 -4.548821 0.114010 0.939666 -0.247886 0.235755
-1.095645 -4.792355 -0.571899 -0.230851 -0.786771 -0.572451
-1.561024 -4.863075 -0.336778 0.356926 -0.905757 -0.228490
0.853780 -4.871692 -1.414149 0.287505 -0.738809 -0.609510
1.379281 2.780513 0.772822 0.996289 0.022689 0.083023
1.357061 3.179385 -0.785637 0.990671 -0.083365 -0.107801
-0.598154 -1.220423 -2.062653 -0.162784 -0.002773 -0.986658
1.288586 1.147387 1.038420 0.982867 -0.171014 0.068748
2.008320 -4.349110 -0.043362 0.950642 0.093688 0.295810
0.788565 2.538464 1.996554 0.137992 -0.489082 0.861253
-1.898867 -4.917207 -1.902299 -0.084607 -0.994701 -0.058414
1.503581 -4.178083 -2.098152 0.313321 0.418840 -0.852293
0.843187 -4.853923 -0.384129 0.161955 -0.986781 -0.005816
1.324322 -4.787888 1.508386 0.591234 -0.611199 0.526193
1.383218 3.342836 -1.906755 0.031262 0.013544 -0.999419
0.867533 -4.799117 -0.594776 0.120282 -0.949182 -0.290836
-1.000339 0.768029 1.358202 -0.883188 -0.413323 0.221683
0.289045 5.061103 -1.537716 -0.004338 0.995356 -0.096169
-0.380302 1.295902 -2.034080 0.025698 0.015700 -0.999547
-1.459297 4.169820 -1.591002 -0.992758 0.096005 0.072211
-1.863276 -0.281531 -0.600253 -0.604183 0.210179 0.768627
1.867880 -3.394666 1.290729 0.787398 -0.002526 0.616440
-2.080655 -1.201902 -1.206052 -0.991290 0.034960 0.126973
-1.093918 -3.993280 2.005026 -0.468101 -0.169918 0.867185
-2.173675 -2.502521 -0.644582 -0.975347 -0.064654 0.210991
-1.635491 4.095966 -1.676146 -0.390597 0.155366 -0.907356
0.470405 3.077135 1.626597 0.817648 0.517282 0.252728
-1.367257 2.350911 0.142939 -0.997253 0.073999 0.003381
1.245937 4.284404 -1.827978 0.480762 0.591892 -0.646940
-1.735240 -1.453709 0.784205 -0.930419 0.127950 0.343437
-0.383506 4.735806 -1.884833 -0.037508 -0.018465 -0.999126
0.961598 4.428097 -1.756177 0.782520 0.474801 -0.402774
0.916241 0.672370 -2.002847 0.040644 0.090988 -0.995022
1.373752 0.547670 -0.873592 0.492506 0.856674 0.153452
-2.020816 -1.035782 -0.651662 -0.932644 0.130501 0.336370
1.844130 -0.431754 -1.841495 0.842035 -0.055244 -0.536586
0.256932 2.962490 2.200225 0.425815 0.668646 0.609585
0.182315 2.692119 -1.977303 -0.034001 0.148676 -0.988301
-1.920817 -1.838138 -1.928177 -0.437923 -0.117057 -0.891359
1.364597 3.082201 -0.888924 0.944092 0.060759 0.324034
0.123483 -3.279317 2.372959 -0.120963 0.080278 0.989406
-1.731234 -0.654009 0.800561 -0.923753 0.204187 0.324019
0.932670 -0.021977 1.500756 0.262374 0.360353 0.895157
-1.671916 -2.158620 -1.788333 -0.443896 -0.084200 -0.892114
2.054655 -1.193918 -0.465169 0.941680 0.170040 0.290389
1.902220 -0.513214 -0.374189 0.776593 0.157003 0.610126
1.353867 3.897637 -0.316753 0.993170 0.074584 -0.089722
-1.258403 2.089612 0.044102 -0.989775 -0.117753 0.080496
-0.315444 0.153003 -2.084558 0.056329 0.204780 -0.977186
-2.240221 -3.028792 -0.964171 -0.999050 -0.002309 -0.043509
0.820867 -4.707265 -2.302784 0.247804 -0.184861 -0.951010
-0.623399 -4.289275 2.078547 -0.085001 -0.386152 0.918511
0.123263 -2.697054 2.358240 -0.008244 0.099510 0.995002
-1.820165 0.292456 -0.715541 -0.704251 0.175627 0.687885
0.525392 4.630216 0.527317 0.330978 0.671444 0.663036
-1.100229 5.049478 -1.495053 -0.622743 0.773216 -0.119696
0.596935 4.023243 0.448034 0.166087 -0.533495 0.829336
1.280090 1.836974 -0.207928 0.998938 -0.037698 -0.026489
-0.125027 -0.553326 1.810622 -0.053627 0.445000 0.893923
1.582138 -4.881410 -0.935374 -0.054555 -0.998490 -0.006449
-0.202118 3.611545 0.862035 -0.495795 0.757491 0.424728
1.902246 0.325368 -0.137303 0.969541 0.243608 0.025381
-0.990687 2.505242 1.312164 -0.510858 0.576204 0.637976
0.698599 -4.878742 1.116993 -0.017128 -0.884369 0.466475
1.811552 0.105724 0.491606 0.976338 0.013343 0.215836
0.014942 -1.979517 2.240838 -0.067143 0.143480 0.987373
1.410142 -0.486380 1.335714 0.657572 0.302490 0.689999
1.268973 0.987135 -0.600130 0.999683 -0.025126 0.001437
2.156203 -2.820017 0.393336 0.924235 0.262658 0.277128
-1.430116 0.557753 0.143473 -0.171676 0.941579 0.289753
0.653455 -0.834990 -2.025442 0.059667 -0.065745 -0.996051
0.923780 5.119472 -0.669173 0.080254 0.994319 0.069919
1.389489 2.554197 0.005739 0.998448 -0.041912 -0.036660
0.171597 3.828003 0.718065 -0.101154 0.883215 0.457930
-1.808745 -4.919648 -1.486585 0.110867 -0.993782 -0.010324
0.886615 3.652933 -1.934772 0.077682 -0.051631 -0.995640
-1.754402 -4.244160 -2.051048 -0.341275 0.415837 -0.842978
-0.443693 -4.820057 -0.424986 -0.128890 -0.840472 -0.526302
-0.067725 2.801616 2.214238 -0.218561 -0.177394 0.959563
-0.261439 -4.830686 1.251089 -0.143228 -0.985247 -0.093667
0.535850 -0.707889 1.822454 0.109229 0.249873 0.962098
-1.225808 0.440621 -2.245949 -0.088016 0.008693 -0.996081
-1.509311 2.812014 -1.248026 -0.895276 -0.029911 -0.444507
-1.392975 -2.207581 1.816521 -0.779615 0.270467 0.564843
-1.763319 0.463125 -0.615144 -0.963459 0.254806 0.082588
1.750311 -2.715681 1.300744 0.624646 0.600791 0.498867
-0.926099 3.993611 -1.883687 -0.119743 0.133747 -0.983755
-1.956257 -1.303592 0.490500 -0.991836 -0.022183 0.125578
-1.842963 -1.339175 -0.210409 -0.966895 0.072812 -0.244564
1.337413 -2.672899 -1.782876 0.079923 -0.212994 -0.973779
0.508959 0.528641 1.854229 0.170548 -0.785484 0.594919
-1.745791 -2.419728 1.053834 -0.948325 0.050403 0.313272
-0.883415 2.217566 1.627366 -0.405623 0.501452 0.764210
0.615435 -1.052482 2.030227 0.238951 0.255095 0.936925
0.926866 -4.898864 -1.867873 -0.027709 -0.999327 0.024028
-1.204503 -4.466279 -2.319451 -0.204815 0.030756 -0.978317
1.252743 -0.273257 1.404769 0.580676 0.147351 0.800689
-1.010281 1.061643 1.737039 -0.899412 -0.359948 0.247982
0.873826 1.468167 2.157773 0.351479 0.262772 0.898562
0.867700 -4.818343 1.019549 -0.084665 -0.865049 0.494492
-0.541242 3.964893 0.379800 -0.260742 -0.544156 0.797438
0.876046 -4.324140 -2.264662 0.034992 0.559824 -0.827872
-0.144413 -4.869615 1.806296 -0.431668 -0.865674 0.253518
1.228381 -0.134722 -1.859029 0.118926 -0.125238 -0.984973
-1.990253 -3.285062 0.781729 -0.924190 -0.107985 0.366349
-1.856072 -0.615736 0.696621 -0.887856 0.122493 0.443517
1.337061 1.639070 0.388687 0.993150 -0.114814 -0.021694
-1.173269 1.282941 -0.944679 -0.999832 0.010217 -0.015241
-0.890508 4.847213 -0.065283 -0.616241 0.635358 0.465367
-1.512134 0.753276 -1.166072 -0.285829 0.931643 0.224372
-1.859481 -2.399181 0.188617 -0.971177 0.221541 0.087951
-0.889461 -4.913594 -1.563412 -0.028223 -0.998113 0.054531
1.889730 -4.724689 0.148591 0.866713 -0.435112 0.243899
1.789045 -3.476251 1.446647 0.855944 0.083584 0.510268
0.078702 -4.821156 -0.176835 -0.248630 -0.900391 -0.357042
1.493344 0.398378 0.584539 0.189247 0.967006 0.170543
0.960614 4.140708 0.418921 0.386025 -0.313169 0.867704
2.024307 -1.026914 -1.676800 0.948051 -0.018570 -0.317576
1.971385 -0.796742 -1.775222 0.914346 0.065960 -0.399526
-0.212792 3.213135 1.119666 -0.696149 0.645610 0.313949
-1.604370 -4.905402 -0.836264 -0.038380 -0.992845 0.113078
-0.167021 -0.601274 -2.161929 0.061792 0.055010 -0.996572
0.140079 3.256531 1.715195 0.180046 0.900747 0.395269
1.907745 -0.356376 -0.313737 0.991757 0.123851 -0.032848
1.107053 -2.607516 2.148973 0.506027 0.152476 0.848933
0.222533 -0.058029 1.677434 -0.097506 0.370734 0.923607
2.097687 -2.167381 -1.560460 0.830202 -0.067972 -0.553303
1.742411 4.186862 -1.542488 0.984386 0.176015 0.001451
-1.521411 -2.064975 1.448832 -0.809407 0.339775 0.478971
-2.149972 -2.542285 -0.743192 -0.918536 -0.064915 0.389971
-0.042827 -4.705128 2.206720 -0.202974 -0.387658 0.899179
-1.340161 0.607515 -0.667866 -0.190035 0.962567 0.193265
-0.093285 0.549780 -2.056985 0.053999 0.149886 -0.987228
-0.956158 -4.912048 -1.566476 -0.028223 -0.998113 0.054531
-1.192842 0.550609 -0.042890 -0.710698 0.676955 0.191415
-0.417426 2.194717 1.807122 -0.147814 0.706392 0.692215
1.016238 3.043423 -1.927653 0.063503 -0.020142 -0.997778
1.982797 -1.649085 -1.144392 0.998441 0.005207 -0.055573
1.328917 1.488285 0.185694 0.999579 -0.014076 -0.025354
-1.299496 3.206817 -0.466973 -0.997337 0.046835 -0.055900
-0.188487 -2.217694 2.267547 -0.129899 0.212804 0.968422
-1.484529 -0.839617 0.987764 -0.798753 0.084478 0.595699
1.281935 -3.434859 2.034945 0.562700 0.365521 0.741460
-0.335115 3.564311 -2.132846 -0.032913 0.074068 -0.996710
1.762485 -3.373184 -1.562917 0.647773 0.267554 -0.713306
-0.464278 -0.040845 1.623833 -0.213462 0.368224 0.904901
-1.173511 -3.104502 1.984513 -0.682175 0.267255 0.680597
0.103015 1.498432 -2.051318 -0.045741 0.152754 -0.987205
0.669446 4.651178 0.411552 0.443985 0.636885 0.630281
-1.519483 -2.321506 1.509975 -0.887996 -0.039268 0.458172
-1.242045 2.063273 0.811155 -0.999025 -0.025298 0.036179
1.239344 4.632493 -1.373708 0.959732 0.106618 -0.259899
-0.520174 4.943867 -1.376186 -0.023391 0.999239 -0.031224
-0.668605 -4.869853 0.929636 -0.284937 -0.935489 0.208979
-0.511144 -0.990053 -2.079632 0.044887 -0.053937 -0.997535
-1.458101 0.881265 -1.994213 -0.124911 0.242588 -0.962054
1.390451 3.116647 -0.040405 0.997211 0.022757 0.071079
-1.997299 -1.087232 -0.596835 -0.895535 0.163689 0.413791
1.201267 -2.952186 -1.761595 0.448998 0.207438 -0.869120
1.291155 2.065894 -1.314158 0.960523 -0.243988 -0.133661
-1.654028 0.838778 -1.851829 -0.227495 0.973603 -0.018500
-1.185221 1.300687 0.060870 -0.998820 -0.048213 0.005776
2.183216 -2.404041 -0.587299 0.999527 0.007814 0.029740
1.924790 -4.892009 -0.745803 0.111010 -0.992680 -0.047569
-1.217855 1.829102 -1.342176 -0.996105 -0.050563 -0.072231
1.856136 -0.568872 -0.526671 0.983320 0.178251 -0.036186
1.311748 1.263103 -0.004830 0.994797 -0.101446 -0.009352
0.307379 3.309912 -1.952489 0.099101 -0.080116 -0.991847
1.044794 3.412247 -1.918011 0.083784 0.076898 -0.993512
-1.443447 0.399071 -0.037244 -0.171836 0.944804 0.278960
-0.609598 1.793133 2.014330 -0.447553 0.199067 0.871819
-2.066244 -3.113713 0.603794 -0.954146 0.009945 0.299176
-1.479426 3.258329 -1.537926 -0.954591 -0.163257 0.249203
0.160822 -3.055790 -1.995529 -0.004481 0.389233 -0.921128
-1.197687 -0.690543 -2.052292 -0.128455 -0.019392 -0.991526
0.899103 2.773394 1.553919 0.526403 0.846148 -0.083270
1.031487 3.205836 0.726397 0.343607 0.651795 0.676089
1.270746 0.847121 -0.662830 0.996490 -0.064488 -0.053382
-1.249010 -4.423456 1.674594 -0.590069 -0.060188 0.805106
0.610538 -1.202416 1.881786 0.192280 0.469256 0.861875
2.069813 -1.082912 -0.814251 0.998802 0.043660 0.022101
1.851431 -2.011709 0.861336 0.961434 -0.000433 0.275035
-1.225600 1.594650 -0.759646 -0.998196 -0.012788 -0.058663
-2.039902 -1.642712 -0.555422 -0.830613 0.181001 0.526613
1.329849 1.476058 0.229229 0.999579 -0.014076 -0.025354
1.629175 -2.694703 1.669746 0.957099 0.116365 0.265368
-0.712448 -0.072273 -2.074517 0.080403 -0.091797 -0.992526
1.839308 -4.872906 -0.788286 -0.131525 -0.990677 0.035507
-1.327791 -1.607197 1.538127 -0.690082 0.201983 0.694974
-0.530650 0.548877 1.806686 -0.388134 -0.670910 0.631848
1.445962 -4.699495 1.281094 0.859489 -0.234734 0.454069
1.564656 2.983677 -1.364095 0.746553 -0.149208 -0.648379
0.009569 -4.935585 -1.196984 -0.476104 -0.490189 0.730096
2.315643 -4.275028 -1.603327 0.993356 -0.027920 -0.111644
-1.259687 -4.585368 1.647644 -0.683848 -0.079942 0.725232
-0.521179 -1.654056 -2.045766 -0.041190 0.006727 -0.999129
-1.778763 -1.967057 0.800911 -0.958493 0.128437 0.254549
-1.841226 -0.986375 0.365307 -0.979421 0.092786 0.179235
1.809730 -2.246857 1.039767 0.981672 -0.005404 0.190502
1.106535 1.859465 2.045466 0.324748 0.214454 0.921167
1.881814 -1.283236 0.260627 0.997881 -0.002670 -0.065009
-1.834054 0.469468 -2.024080 -0.188040 0.025260 -0.981836
-1.590768 -4.906896 -0.989031 0.046384 -0.989628 0.135956
-1.233685 -4.946725 -0.879847 -0.165894 -0.916339 -0.364421
1.441489 3.627316 -1.161273 0.432780 0.698608 0.569780
-0.570058 -3.314308 -2.066237 -0.158936 0.206468 -0.965459
-1.632208 -2.396285 -1.926884 -0.114329 -0.247033 -0.962239
1.197147 1.761887 -1.695999 0.834859 -0.037198 -0.549205
1.751278 0.428333 0.135264 0.339383 0.924046 0.175950
-1.530680 -2.696819 1.337612 -0.825468 0.128107 0.549719
2.059772 -3.083038 0.809615 0.950939 -0.169409 0.258875
0.736273 2.706855 1.469670 0.065473 0.995910 -0.062256
1.065276 -0.744087 -2.001640 0.092506 0.090049 -0.991632
-1.210694 2.567210 -0.758479 -0.998353 -0.054585 0.017664
-0.247703 2.077403 -2.001061 0.012031 -0.004168 -0.999919
2.045690 -0.244345 -0.601386 0.962284 0.109258 0.249144
-0.664448 2.619950 -1.966167 -0.040594 -0.055550 -0.997630
0.033203 -4.803184 -0.994871 -0.028614 -0.992334 -0.120229
-1.213658 3.924128 -0.042499 -0.906171 -0.175567 0.384747
1.620919 2.251642 -0.889413 0.678756 -0.099875 0.727540
-1.451450 2.770792 -1.347443 -0.858300 -0.106947 -0.501880
1.873593 -1.196089 0.093472 0.998719 -0.010081 -0.049590
0.244034 -2.275567 2.287336 0.029705 0.338587 0.940466
-1.737823 -2.027763 -1.951763 -0.147306 -0.169046 -0.974538
-0.548198 -0.526818 1.734550 -0.309692 0.226767 0.923400
0.614433 4.661029 -1.847963 -0.049051 0.312073 -0.948791
0.529168 -0.329184 1.708148 0.196785 0.256418 0.946322
-2.205117 -4.580464 -0.350087 -0.983259 -0.093002 0.156691
1.773050 -0.505193 -1.939470 0.330651 -0.107626 -0.937596
-1.173595 -4.993167 1.494846 -0.036130 -0.961492 0.272448
1.797439 -1.387730 0.944168 0.970040 -0.103436 0.219826
1.482225 0.894913 -1.464713 0.400218 0.916352 0.011191
1.854001 -2.087238 -0.057121 0.912626 0.154522 0.378466
-0.245940 4.868814 0.298604 -0.188901 0.780388 0.596079
1.622556 0.832639 -1.535711 0.464119 0.882166 -0.079860
1.035120 -4.129943 -2.060620 -0.023329 0.332396 -0.942851
-0.043048 3.839293 0.608280 -0.269507 0.824282 0.497921
-0.062029 4.938044 -0.564932 -0.101381 0.989273 -0.105166
-1.765080 -0.990401 -2.025902 -0.076426 0.004146 -0.997067
2.029305 -0.630202 -0.380676 0.953415 0.073554 0.292557
-0.243736 2.012970 1.979553 0.064275 0.907356 0.415420
-0.428210 -4.740755 -1.923862 0.053748 -0.984939 0.164336
1.311892 0.480021 0.436744 0.529021 0.796909 0.291673
1.474108 4.178887 -1.907392 0.013308 0.058118 -0.998221
1.581389 2.898655 -1.073509 0.722305 0.026014 0.691085
0.295614 1.663414 2.169146 -0.089069 0.118723 0.988924
-1.311932 3.495710 -1.865996 -0.113427 -0.017549 -0.993391
-1.255153 2.858473 -1.708009 -0.151438 0.211272 -0.965625
-0.969865 4.089794 -1.889330 -0.083744 0.418676 -0.904266
0.767930 -3.085970 2.348472 -0.129820 -0.593383 0.794383
1.309774 -1.940348 1.852039 0.572381 0.133956 0.808972
-1.649081 -4.254725 1.241717 -0.826282 -0.390774 0.405653
-0.454022 3.522737 -1.942595 -0.011758 -0.032349 -0.999408
1.893845 -4.042514 0.809989 0.742166 -0.644581 0.183587
-1.203516 4.524663 -1.193232 -0.988546 0.133992 -0.069454
0.219383 -4.821666 -0.084713 -0.336279 -0.934950 -0.113068
-0.561188 -2.669022 2.293377 -0.366993 0.158700 0.916586
-1.184029 4.868351 -0.666754 -0.992126 0.121125 0.031861
2.237033 -2.936739 -0.609022 0.999151 0.039964 0.009974
2.198566 -4.616258 -1.292169 0.991398 -0.059106 0.116774
1.034415 -4.159811 -2.207100 0.237346 0.138053 -0.961565
-0.629183 -0.298601 1.755953 -0.329244 0.139058 0.933949
2.153093 -2.090768 -0.950764 0.995104 -0.004829 -0.098719
0.100502 2.465563 1.875000 0.019060 -0.475323 0.879605
2.241063 -3.352524 -0.777492 0.995916 -0.060748 -0.066788
-1.632135 -0.333219 -2.049339 -0.060770 -0.015360 -0.998034
-1.470121 2.202361 -1.506281 -0.737358 -0.674642 0.034070
2.083905 -4.467353 -1.836595 0.911500 0.384587 -0.145811
-1.239438 1.522159 -0.099162 -0.995369 -0.087164 0.040526
-1.502382 -0.630766 1.051157 -0.864972 0.150492 0.478723
-0.389882 -4.843100 0.059611 0.201573 -0.917825 -0.342002
1.394688 -4.855306 -2.194432 0.277942 -0.720981 -0.634771
0.876081 2.949156 1.038235 0.268569 0.724255 0.635079
2.186044 -1.834443 -1.077862 0.988161 0.117890 0.098186
1.271539 2.019718 1.560111 0.666436 0.526119 0.528263
1.653337 -0.689476 0.436027 0.969828 0.052611 0.238046
-1.814170 0.002830 -0.240473 -0.985781 0.155907 -0.062676
-0.064770 -4.745280 1.363307 0.027948 -0.999481 0.016029
0.313228 4.292704 -1.935854 0.011954 -0.280562 -0.959761
-0.346530 3.528221 -1.944031 -0.011758 -0.032349 -0.999408
0.084976 -4.006358 2.354316 -0.205189 0.045615 0.977659
1.327745 2.619598 -0.700570 0.997710 0.067056 0.008876
-1.280229 -4.233114 1.729574 -0.601132 -0.491443 0.630178
-1.851168 -0.230860 -0.558711 -0.782661 0.014187 0.622287
1.393077 2.833354 0.413453 0.998540 -0.003326 0.053921
-2.055609 -4.157384 -0.117779 -0.822518 -0.567364 -0.039533
-1.443431 -4.863999 -0.092800 0.037793 -0.999050 -0.021702
-1.183485 -4.829849 0.605091 0.121817 -0.992467 -0.013025
2.049625 -0.768487 -0.891260 0.998937 0.013278 -0.044137
-2.010103 -4.280375 -1.812529 -0.890286 0.251734 -0.379500
-2.020482 -4.047686 0.510979 -0.894772 -0.393370 0.211288
-0.981626 1.831975 1.652755 -0.790055 0.468895 0.394905
1.528063 -4.207301 -2.114277 0.327399 0.214972 -0.920107
-0.840215 -4.848820 -0.236169 -0.127898 -0.990114 0.057589
0.845270 3.174358 -1.932909 -0.007600 0.030851 -0.999495
2.005780 0.496826 -1.255154 0.964245 0.263184 -0.031081
-1.481898 -0.281763 -2.052766 0.047479 0.034171 -0.998288
0.397136 -1.111255 -2.036439 0.035647 -0.021961 -0.999123
0.673115 -1.267311 1.958623 0.229972 0.405159 0.884849
-1.889952 -1.232169 0.262911 -0.989545 0.117300 0.083909
1.233584 1.645030 -1.571384 0.988398 -0.056462 -0.140998
1.956161 0.281629 -1.907546 0.953395 0.086629 -0.289020
1.970083 -4.770338 -1.981807 0.676503 -0.317057 -0.664694
-1.263828 2.366218 -0.721967 -0.998437 0.048917 -0.027028
1.518392 -4.390224 1.277300 0.895617 -0.119992 0.428336
-0.128719 -2.039478 2.035352 -0.088523 0.112625 0.989686
-1.188730 -2.873070 1.955013 -0.701632 -0.054959 0.710416
-0.627950 -1.907688 -2.009380 -0.136601 -0.028517 -0.990216
-0.267902 3.080684 1.691569 -0.768808 0.615461 0.173618
-1.205208 4.171121 -0.299239 -0.990605 0.062335 0.121719
-1.629131 0.145681 0.502411 -0.946650 0.028559 0.320996
0.985727 -4.345826 1.965320 0.632913 -0.523631 0.570290
2.112753 -2.483287 0.277300 0.908173 0.366854 0.201594
1.924679 -3.843017 -1.521681 0.911893 -0.088893 -0.400685
0.575366 3.136527 1.041964 0.979171 0.151135 0.135584
-0.638571 2.387653 -1.975295 -0.035786 0.001681 -0.999358
-0.936980 -4.134726 -2.277220 -0.103091 0.341690 -0.934142
1.171001 -4.784555 -0.300106 0.060872 -0.996751 0.052737
0.591122 -4.109006 -2.254556 -0.023754 0.079451 -0.996556
1.607715 -2.851313 1.747491 0.717932 0.197088 0.667631
-0.831783 0.563244 -2.064037 -0.041361 0.164595 -0.985494
0.579109 -4.851618 1.992294 0.311389 -0.948547 0.057401
-0.500118 -1.354357 -2.059863 -0.032287 0.143304 -0.989152
-0.346020 0.372892 -2.077183 0.036991 0.085156 -0.995681
2.010043 0.194571 -1.608169 0.985385 0.052197 -0.162150
-0.303607 4.851844 -0.589823 -0.049429 0.988786 -0.140922
-0.955280 -0.551164 1.562707 -0.589882 0.217567 0.777627
-0.423445 -4.895216 -1.391229 0.007692 -0.600534 -0.799562
1.215690 1.804424 -1.640238 0.906632 -0.194602 -0.374364
-0.148179 -2.445282 -2.007349 0.037382 0.222441 -0.974229
-1.580380 -2.078897 -1.962432 0.002155 -0.099537 -0.995031
0.936222 4.281593 -1.892020 0.119374 -0.113286 -0.986365
-1.827529 -3.843152 -1.850511 -0.487975 0.333284 -0.806723
-2.004363 -0.821028 -0.678182 -0.982095 0.062384 0.177757
-0.489370 0.349659 -2.079935 0.036991 0.085156 -0.995681
1.955713 -3.959584 0.714793 0.746354 -0.603147 0.281373
-0.064178 -0.342913 1.747212 0.112769 0.420654 0.900185
-0.113321 -2.633397 -1.920723 0.070002 0.219914 -0.973005
0.649571 -1.812444 -1.996811 -0.007434 -0.125093 -0.992117
-1.393740 0.675777 -0.788360 -0.179631 0.960152 0.214105
0.450030 -4.092634 2.314281 0.155669 -0.016865 0.987665
0.621266 -4.939073 -1.813597 -0.066580 -0.902431 0.425659
-1.310527 -4.859920 0.455070 -0.058550 -0.965420 0.254040
1.371446 0.224989 1.070785 0.157023 0.960173 0.231110
-0.750004 4.128438 -1.898018 -0.116539 0.216215 -0.969366
-2.120766 -3.932911 -0.778969 -0.993914 -0.002410 -0.110132
-1.622773 -4.350895 -2.151441 -0.372724 0.267488 -0.888553
2.238667 -3.218152 -0.397353 0.994189 -0.085157 0.065848
-1.400449 -2.671109 -1.888459 -0.125068 -0.194858 -0.972825
0.899595 4.594015 0.279576 0.584612 0.550735 0.595751
-1.541897 2.334549 -1.687516 -0.993584 -0.094113 -0.062712
-0.922189 1.135297 -2.010275 -0.112650 0.085867 -0.989918
0.637468 3.312156 0.694593 0.514458 0.619608 0.592806
-1.790227 0.283415 -1.651376 -0.999811 0.011863 -0.015402
-1.822390 -0.301854 -0.141761 -0.999209 -0.029237 -0.026948
-0.982326 0.822823 1.558689 -0.854256 -0.477494 0.205538
-0.505620 -1.352171 -2.059366 -0.032287 0.143304 -0.989152
1.718698 -4.356171 -2.093665 0.539849 0.302854 -0.785393
-0.612004 -4.394837 2.035087 -0.186035 -0.350039 0.918076
-1.675312 -4.558151 1.066161 -0.876260 0.019349 0.481450
1.300297 1.612242 1.747399 0.962093 -0.011014 0.272499
-1.020301 -3.110833 -1.905121 -0.118908 0.221699 -0.967838
0.348652 -2.771038 2.321528 -0.034000 -0.433730 0.900401
0.705968 3.098969 0.733998 0.338917 0.611242 0.715205
-0.429663 -1.385696 1.996224 -0.344978 0.120531 0.930840
1.711617 -1.427173 1.459380 0.938904 0.043652 0.341399
-0.011475 4.889937 -1.819814 -0.046454 0.811279 -0.582810
-0.332223 -5.045429 -1.131474 0.209246 -0.971932 0.107532
-1.668245 -0.136906 0.544971 -0.912423 0.031797 0.408012
0.546116 -1.387056 -2.022717 0.040638 0.128023 -0.990938
-0.314340 -3.909220 2.293406 -0.233071 0.124303 0.964483
-1.698367 -3.101167 1.341282 -0.876012 0.192643 0.442144
-1.983731 -0.440981 -0.722322 -0.947629 0.245167 0.204675
1.586747 2.403668 -1.607328 0.949806 -0.237409 -0.203730
1.731692 0.245793 0.661035 0.889277 0.034522 0.456065
-2.002713 -1.092352 -0.577536 -0.895535 0.163689 0.413791
-0.949505 -0.993165 1.682223 -0.537293 0.201609 0.818945
0.481194 4.971628 -1.254485 -0.026151 0.992666 -0.118030
-1.220577 2.492779 0.898279 -0.983288 0.099089 0.152728
-0.917873 -0.862182 -2.074750 -0.037312 -0.229513 -0.972590
-0.954069 4.500569 0.218057 -0.646195 0.372986 0.665818
0.596490 4.982281 -1.272490 -0.051747 0.978459 0.199852
1.618363 -3.708193 -1.873567 0.543374 0.248859 -0.801757
-1.194260 -3.725902 1.955570 -0.654729 0.051193 0.754128
-0.537359 -2.340429 -1.976339 -0.022835 -0.083835 -0.996218
0.290288 1.582504 2.299464 0.207461 0.159514 0.965150
-2.227257 -2.955249 -0.497980 -0.982969 0.176080 0.052606
0.265895 -4.936786 -1.298710 0.055810 -0.464540 0.883792
1.932293 -2.280514 -0.035424 0.689338 0.719121 0.087619
-0.884852 1.314236 1.727665 -0.914576 -0.244713 0.321971
1.846312 -1.359348 -0.098389 0.980488 -0.114914 -0.159493
1.455211 2.865454 -0.983210 0.442308 0.162672 0.881987
0.963714 -3.882832 2.118905 -0.427497 0.015058 0.903891
-1.650861 3.318030 -1.184015 -0.955875 -0.078189 0.283177
1.882371 -2.269671 0.476569 0.999096 0.039110 0.016681
-1.524771 2.245908 -2.015412 -0.327892 -0.630516 -0.703517
-1.033383 1.751709 1.774909 -0.557070 0.412625 0.720703
0.383615 4.431027 0.701899 0.263044 -0.074553 0.961899
2.027121 -4.225617 -0.145565 0.959796 0.005139 0.280653
1.137892 4.636173 -0.244286 0.866189 0.397279 0.303128
-0.145163 -4.851619 0.618483 -0.456056 -0.712805 0.532843
-1.260026 -3.993898 1.879279 -0.693037 -0.196754 0.693532
-2.090185 -1.259690 -1.454405 -0.993231 0.103518 0.052687
-1.819985 -0.617185 0.146311 -0.998902 -0.012449 0.045161
-1.263725 3.981162 -1.172769 -0.832515 -0.263012 0.487589
-1.118659 3.785068 -1.825127 -0.194547 -0.012240 -0.980817
2.217821 -2.742088 -0.083309 0.994633 0.100240 0.025637
-1.831498 -2.391191 0.332012 -0.954338 0.261010 0.145299
-0.047961 -2.387565 2.310433 -0.101430 0.099101 0.989894
-1.662142 2.644601 -1.294828 -0.815351 0.366010 -0.448597
1.537231 2.827421 -1.789913 0.924262 0.000176 -0.381758
-0.028775 3.275975 1.646256 0.207526 0.882945 0.421119
2.042700 -1.054840 -1.425528 0.982552 0.153473 -0.105061
-1.886452 -2.724885 1.037848 -0.865653 0.081418 0.493979
1.132610 -0.162054 1.459328 0.488750 0.250574 0.835665
-0.821009 -1.999922 -2.008336 -0.019305 0.009320 -0.999770
0.520427 2.867760 2.031130 0.755197 0.614487 0.228217
-0.864824 0.368065 1.314062 -0.758506 -0.470720 0.450657
-1.231455 2.637761 0.723429 -0.995831 -0.075572 0.051075
-1.554397 0.113319 -2.059599 0.014519 0.063013 -0.997907
-0.197710 -4.822103 2.068565 -0.381103 -0.649159 0.658295
2.121758 -2.080647 -1.206336 0.981202 0.149375 -0.122190
0.481010 1.633251 -1.983666 0.048331 0.002169 -0.998829
1.213841 -1.361992 1.590399 0.654143 0.188447 0.732520
-1.098085 2.849317 0.900987 -0.420438 0.588472 0.690603
-1.960676 -0.526816 -0.862005 -0.976456 0.060072 0.207182
1.430429 4.250658 -1.468699 0.618023 0.722406 0.310126
-0.549187 0.265502 -2.074919 -0.012726 0.100862 -0.994819
-0.583895 -3.242772 -2.055399 -0.002327 0.397945 -0.917406
1.081515 3.659309 -1.913869 0.138837 -0.121083 -0.982885
1.903402 0.025642 0.176748 0.995824 -0.034638 0.084473
2.084909 -2.844036 -1.357260 0.600504 -0.199557 -0.774320
0.597377 4.703425 0.424849 0.537903 0.486944 0.688147
1.518943 3.206718 -1.696510 0.974544 0.030266 0.222142
1.548898 3.534120 -1.212656 0.861169 0.303247 0.407957
-0.328841 3.035451 1.616645 -0.895322 0.428256 0.122458
2.077606 -4.649876 -0.544154 0.972613 -0.172839 0.155401
-2.103512 -3.686960 0.414834 -0.929537 -0.248006 0.272863
-2.083433 -1.185700 -1.320714 -0.998854 0.043473 -0.020004
1.692763 0.390833 -1.928345 0.646013 0.066899 -0.760390
2.043854 -0.989019 -0.519127 0.975215 0.089971 0.202140
-0.163465 -4.821325 0.506161 -0.141370 -0.945675 -0.292768
1.050516 4.808111 -1.795009 0.616141 0.186039 -0.765349
-1.482285 -3.975450 1.639933 -0.770184 -0.282374 0.571911
0.883550 2.669918 1.774292 0.541068 0.825908 0.158496
-1.345186 -4.914297 1.257974 -0.077867 -0.995862 0.046865
-1.432014 3.045032 -1.884281 -0.172470 -0.037860 -0.984287
-1.999659 -0.404608 -0.871167 -0.974047 0.052679 0.220131
1.377553 2.539909 -0.262416 0.998820 0.030237 -0.038005
1.639973 -4.185859 1.280073 0.795988 -0.547741 0.257647
-1.775861 -2.996779 -1.758171 -0.275088 -0.254699 -0.927068
0.361284 -2.725026 -1.922294 0.165750 -0.134123 -0.977005
1.908212 -0.449471 -1.882507 0.718717 -0.167023 -0.674943
0.897922 2.356118 -1.742249 0.216214 0.154378 -0.964064
0.989923 4.641778 0.146708 0.528612 0.585644 0.614484
1.523292 -0.500194 1.142523 0.837040 0.252894 0.485189
-1.220811 -4.742807 -2.321989 -0.209673 -0.193950 -0.958343
-0.940888 -2.863078 2.351579 -0.567118 -0.141191 0.811445
-1.800878 -4.902866 -0.370897 -0.005964 -0.987031 0.160421
-1.591643 -4.873164 0.132149 0.045988 -0.998512 0.029307
0.524674 0.435257 -2.014350 0.085790 0.239320 -0.967143
1.288241 4.301118 -1.828588 0.432346 0.519354 -0.737122
-0.477580 3.573380 0.439046 -0.225136 0.670593 0.706837
0.794676 -4.556741 1.995146 0.819413 -0.116867 0.561163
0.965013 1.702163 -1.934242 0.396900 -0.033283 -0.917258
2.050867 0.085211 -1.224656 0.972065 0.232025 0.035417
-1.255306 3.172504 -0.831768 -0.997526 -0.047949 -0.051411
0.908405 4.571059 0.267436 0.605615 0.479875 0.634784
0.873530 -4.047494 2.057984 -0.023654 -0.246638 0.968819
-0.563080 2.506630 1.792084 -0.340572 -0.596334 0.726909
0.094074 1.588987 2.305504 -0.117561 0.124207 0.985268
1.385853 2.374543 0.338817 0.998855 -0.040216 -0.025919
2.089212 -3.530289 -1.160272 0.820382 -0.227714 -0.524519
1.306085 -2.440224 1.851004 0.672246 0.218461 0.707361
-1.934345 -1.928339 -1.909686 -0.437923 -0.117057 -0.891359
-0.649512 -2.838788 -1.918739 -0.149768 0.275030 -0.949699
-1.099271 -3.372007 -1.976480 -0.123378 0.366281 -0.922289
-0.600564 -4.344216 2.025902 -0.186035 -0.350039 0.918076
1.646284 -1.982433 -1.853756 0.444544 -0.134091 -0.885664
-2.075286 -1.102028 -1.223402 -0.991728 -0.125062 0.028902
2.224597 -3.053741 -0.947566 0.986209 0.075520 -0.147271
0.988653 -3.278724 -2.034376 0.268686 0.265296 -0.925973
0.019848 -3.012507 2.276189 -0.047915 -0.411878 0.909978
-0.221612 4.934281 -0.959507 -0.044293 0.997900 0.047255
1.296258 1.447400 -0.778441 0.996653 -0.071665 -0.039335
2.093588 -4.322282 -1.717428 0.807027 0.165423 -0.566871
-1.392420 3.670388 -1.844966 -0.391567 -0.015637 -0.920017
1.857904 0.190585 -1.664902 0.985385 0.052197 -0.162150
1.278043 1.083841 -0.607412 0.998972 -0.024063 -0.038408
1.307656 4.396262 -0.731638 0.998530 0.052520 -0.013394
-2.060876 -2.648744 0.342635 -0.966514 0.141954 0.213777
-2.150872 -4.036510 -0.785593 -0.898800 -0.434025 -0.061494
0.080884 -0.638797 1.831194 0.222599 0.668848 0.709290
0.877956 1.664854 -1.969071 -0.105490 0.092541 -0.990105
0.484591 0.589451 -2.020975 0.056876 -0.208734 -0.976317
-0.853138 -4.920796 -1.838018 0.089068 -0.979794 0.179083
1.942742 -4.889671 -1.248036 -0.064258 -0.997357 0.033925
-1.454170 -4.507390 1.202646 -0.730522 -0.201940 0.652348
-1.842524 -4.893380 -2.037107 0.053212 -0.940597 -0.335329
-1.267544 -1.305374 1.744410 -0.692883 0.117314 0.711442
1.687926 0.570810 -0.403537 0.315107 0.922640 0.222357
-1.477247 -3.540739 1.771189 -0.737523 0.015820 0.675136
-0.870848 -0.879657 1.697585 -0.280830 0.338102 0.898232
-0.870199 -4.836258 1.238834 0.052869 -0.997632 -0.043985
-0.871026 -4.868203 -0.523596 0.333997 -0.749090 0.572110
1.776455 -3.905300 -1.849968 0.537658 0.462861 -0.704758
-2.204375 -3.031998 -1.423665 -0.833532 -0.207720 -0.511935
1.541368 2.561340 -0.991158 0.610294 -0.055873 0.790202
1.559485 3.507761 -1.356602 0.977392 0.089174 -0.191712
-0.792720 4.743659 0.053893 -0.633280 0.677762 0.373624
-0.093933 -1.899866 2.189655 -0.088523 0.112625 0.989686
-2.062135 -0.856403 -1.497687 -0.998164 0.052107 0.030888
