ply
format ascii 1.0
element vertex 825
property float x
property float y
property float z
property float nx
property float ny
property float nz
end_header
0.529068 -3.452081 -2.092760 0.038898 -0.145775 0.988553
1.119626 -2.200405 -1.894970 -0.033359 -0.469121 0.882504
0.404417 -2.333476 2.291657 0.115505 0.404993 0.906995
-0.971768 4.923108 -1.073451 0.090702 0.989824 0.109645
-1.240315 0.323798 1.122063 0.904463 -0.426540 -0.003153
1.400216 2.928183 0.202222 0.998421 0.041775 -0.037546
0.647641 -0.070321 1.686798 0.914217 -0.155187 -0.374332
1.222580 -4.481771 -2.162812 -0.607099 -0.634209 0.478759
-0.047449 -4.847687 -1.374116 0.953862 -0.110892 0.279017
1.456363 3.839374 -1.213062 0.547589 -0.164553 0.820408
0.884952 -4.541633 1.946786 -0.593052 -0.740700 -0.315678
1.296657 1.530104 -0.894735 0.964932 -0.168103 -0.201613
1.237585 2.938295 0.923012 0.076911 0.783634 0.616443
-0.404460 2.229342 1.785849 0.307217 0.262491 -0.914722
-0.422225 -4.129326 2.243620 -0.523492 -0.179446 0.832920
-0.890291 -0.655613 1.655640 0.427405 -0.088581 -0.899711
-1.483220 0.558457 -0.330203 0.139468 -0.978974 -0.148857
1.017126 1.212239 -1.903152 0.822818 -0.182411 -0.538235
-1.467860 0.449072 0.101998 -0.015091 -0.989469 0.143957
0.900616 2.561326 1.891078 0.325599 -0.127521 0.936869
1.339576 3.960336 -0.143477 0.981512 0.137228 0.133431
1.238829 -4.853295 0.860378 0.394753 -0.909740 -0.128624
1.445474 0.561995 -0.085422 -0.336177 0.384173 -0.859882
1.999770 -3.179457 -1.374122 -0.375102 0.209146 0.903082
-0.339552 4.420295 0.673845 0.325187 0.099748 -0.940374
-1.967602 -4.413146 0.308750 0.951016 0.222349 -0.214779
1.281417 2.246459 -1.826802 0.319466 -0.409684 -0.854460
-0.074442 -3.994496 2.329234 -0.152988 -0.032140 0.987705
1.936872 -1.274882 -0.336535 -0.122283 -0.292920 -0.948285
1.140011 2.289086 1.504287 -0.772635 -0.268619 -0.575220
0.499917 -4.722701 -2.337348 0.162806 -0.118792 -0.979481
1.081072 4.968069 -1.369452 0.515219 0.854423 0.067161
-1.651785 0.615819 -0.843954 0.082957 -0.962788 -0.257208
-1.785602 -0.288409 0.215757 -0.678197 0.657070 0.329102
-0.897845 2.170248 1.650755 0.584390 -0.517653 -0.624919
-1.103623 1.426041 1.801074 0.836093 0.071118 -0.543959
-0.547566 0.405476 1.606691 -0.322557 -0.731849 0.600295
-0.690143 1.959657 -1.989606 0.418893 -0.093270 0.903233
1.737996 -1.348150 -1.869651 -0.217702 0.275936 0.936197
2.004840 -2.117087 -1.666606 -0.543315 0.045939 0.838271
-0.264675 0.217174 -2.068183 -0.073662 -0.110471 0.991146
0.637273 -4.807106 -0.751119 -0.381892 0.559068 0.735936
-0.201789 -4.002155 -2.251000 0.349739 -0.446373 0.823671
-0.129713 -1.844702 -2.031891 0.067067 -0.054951 -0.996234
2.058066 -1.049940 -1.225268 0.967424 0.022017 -0.252204
0.583817 2.834028 1.566499 -0.566092 -0.703962 -0.428926
2.058818 -1.522038 -1.510331 -0.486007 -0.726009 0.486528
1.838526 -0.404970 -0.340489 0.922770 0.307991 0.231596
1.437161 0.410855 0.515833 -0.209334 -0.970281 -0.121381
-0.219925 -1.952249 -2.030660 0.564631 0.349146 -0.747856
-1.072678 2.710237 -1.937243 0.067981 -0.013027 0.997602
-0.859131 1.000324 2.052415 0.730905 0.229356 -0.642787
1.689692 -0.159843 0.888870 0.394827 -0.312904 -0.863830
2.131629 -2.135920 -1.357255 0.989377 0.100210 0.105313
-2.014749 -0.179568 -1.772869 -0.208521 -0.805253 0.555055
0.357386 -4.843894 -0.170101 -0.079217 -0.995175 -0.057886
-2.147237 -1.882382 -1.355783 0.998263 -0.058903 -0.001282
1.378628 3.166597 0.422646 0.957596 0.283749 -0.049965
1.197916 4.764866 -1.484681 0.915682 -0.324254 0.237457
-0.875850 1.701424 -1.961654 0.667601 -0.293892 0.684059
-1.792400 -4.833668 0.640029 0.663647 0.733379 -0.147408
1.066156 -0.049999 1.459517 -0.476127 -0.314501 -0.821214
0.118437 1.991601 -1.995730 -0.036560 -0.057008 0.997704
1.626930 -4.882761 -1.481858 0.092737 0.983773 -0.153594
1.458469 2.213536 -1.099643 0.913934 0.316664 0.253865
-0.967014 -2.879458 2.136453 0.547929 -0.018897 -0.836312
0.013205 1.026653 -2.028601 -0.028860 0.268768 -0.962772
1.574576 0.456462 0.191955 -0.243243 -0.938175 -0.246293
-2.057691 -1.235083 -0.810135 0.976827 0.069360 -0.202481
-1.657955 0.729031 -1.258040 0.297282 -0.922449 -0.246395
-0.855661 0.583929 1.505212 -0.027090 -0.994226 0.103827
-1.753478 -0.269006 0.331773 0.929897 -0.144574 -0.338215
1.345456 2.073594 -0.878652 0.921366 -0.350650 -0.167720
-0.956850 1.210888 2.014410 0.921601 -0.153768 0.356379
2.026243 -4.824120 -0.814326 0.766600 0.449807 0.458255
0.630850 4.960666 -0.636118 -0.091993 0.978881 0.182563
-2.022853 -4.190565 0.079127 0.943247 0.286700 -0.167598
0.366490 4.973307 -1.237344 0.033738 -0.999166 -0.023007
-1.372699 -4.916034 -1.330087 -0.050427 -0.998515 0.020621
1.366977 2.047213 0.693286 0.995489 0.060680 -0.072933
-1.614282 -4.870430 0.382029 0.922538 -0.337202 -0.187664
-1.846065 -2.369519 0.280877 0.991798 -0.117105 -0.051220
-1.912042 -4.920382 -1.803748 0.087716 -0.995894 0.022384
-0.426844 0.898067 2.233757 -0.399638 -0.604750 0.688888
1.719529 -4.883016 -1.656839 0.047288 -0.998880 0.001443
-1.999728 -4.914100 -1.041119 -0.420459 -0.889964 -0.176574
-0.346073 4.311143 0.644555 0.822671 0.370357 -0.431333
-0.544562 -4.395893 2.056929 -0.418826 -0.260687 0.869843
-1.122195 -4.926364 -2.118248 -0.158189 -0.937223 -0.310787
-0.228574 -4.783315 -2.338964 0.308553 0.151667 0.939038
2.031521 -1.013666 -1.469934 0.988279 0.126033 0.086142
-0.866849 -1.335442 1.827101 -0.379189 0.123355 0.917060
-1.219589 1.661847 1.431500 0.992559 0.067952 -0.101038
0.175860 -1.794956 2.155316 0.270703 0.238470 0.932659
-1.155507 1.834668 1.583127 0.853471 -0.237370 -0.463943
-0.353915 4.912178 0.262128 -0.279948 0.413996 0.866162
-1.146899 -4.848323 -0.163159 -0.121866 -0.980687 -0.152975
1.998523 -3.030448 0.962544 0.949724 -0.146350 0.276780
0.817749 -0.560377 1.713944 -0.498263 -0.064403 0.864631
-1.045265 4.340961 0.242206 0.837377 -0.289326 -0.463778
1.895255 0.218065 -1.924191 -0.700517 0.134529 0.700841
1.999836 -0.215670 -1.665489 0.925349 -0.378992 0.009750
1.885298 -1.817355 0.636236 0.969120 -0.143352 0.200639
-1.999793 -4.273684 0.179278 0.994022 0.027231 -0.105726
0.552291 2.864614 1.876420 0.858452 0.502225 0.104065
1.478991 -0.416925 1.245320 -0.387148 -0.277004 -0.879423
1.192432 4.884018 -1.105543 0.755383 0.291778 -0.586739
-1.176985 2.863174 0.808760 -0.752235 -0.588887 0.295558
-1.964498 0.230154 -0.959349 0.958770 -0.070483 -0.275304
1.453860 0.462230 0.297816 0.228310 0.947630 0.223321
1.957614 0.497679 -1.792319 0.579634 0.167759 0.797422
1.884666 -2.473065 0.705288 0.888141 0.445579 0.112543
1.177217 4.430321 0.140676 0.815398 0.578523 0.020902
-0.832607 4.934417 -0.872166 -0.646873 0.752660 0.122710
-1.274436 -1.862375 1.652604 0.586549 -0.400291 -0.704080
1.982767 0.588114 -1.066032 0.682062 0.717270 0.142529
1.276005 1.042847 -0.488659 0.992513 -0.121896 0.007719
-2.137293 -2.781108 0.073815 0.991455 -0.079390 -0.103509
-1.525568 2.623854 -1.169858 0.995590 0.016976 -0.092260
-0.904388 4.147734 0.410570 -0.233733 -0.273193 0.933132
-1.353042 -4.280527 1.622598 -0.351877 -0.387248 0.852187
-0.403648 2.847599 1.773142 -0.672982 0.704756 -0.224533
-0.017397 -2.211615 2.275595 -0.024125 0.211279 0.977128
-1.216941 2.818233 0.623752 0.974478 -0.191094 -0.117797
-1.811644 -2.064196 -1.940145 0.462166 -0.194460 0.865209
1.442954 0.878383 -1.438101 0.204424 0.946253 0.250631
1.986592 -4.286903 0.034878 0.978197 0.088497 0.187878
1.618331 -4.046994 -2.022576 -0.131484 -0.222206 0.966094
0.171187 1.734065 2.189093 0.016340 0.556613 0.830611
-0.248623 4.855759 0.395204 0.115831 -0.854377 -0.506580
-2.101458 -4.312209 -1.426092 0.994554 -0.052948 0.089766
-1.754333 -4.895258 -2.044886 -0.079964 -0.932025 -0.353462
1.283196 1.112939 -0.391190 0.995779 -0.089228 -0.021488
-1.273937 2.870663 -0.951904 -0.800311 0.165601 0.576263
-2.119543 -2.648506 0.018089 0.955796 -0.284564 -0.074007
1.497019 -3.108710 -1.668319 0.148725 -0.597902 0.787651
0.910992 0.207955 1.420790 0.182461 0.106606 -0.977417
-1.221859 4.050606 -0.202016 0.975607 -0.047869 -0.214242
-0.096068 -0.404337 -2.058646 -0.106367 -0.081985 0.990941
0.081145 3.184796 -1.959496 -0.048098 -0.032706 0.998307
-1.818456 -4.630825 0.785239 0.864134 0.106619 -0.491838
1.181360 0.393968 0.992315 0.771908 0.463737 0.434864
1.142287 -0.997563 -1.993655 0.095489 -0.036564 -0.994758
-1.598181 0.664654 -0.959451 -0.354615 0.875485 0.328292
0.087749 4.966573 -1.552271 0.662049 0.509047 -0.550057
1.938493 -4.884757 -1.557820 -0.458803 0.855435 -0.240274
0.419625 -4.299235 -2.297571 0.082501 0.191798 -0.977961
1.989436 -4.871825 -1.561091 0.392033 -0.910679 0.130285
0.885339 2.450327 -1.938331 0.096751 0.191838 -0.976646
0.336396 4.969520 -0.950869 -0.044731 -0.998923 0.012359
1.972138 -3.460048 1.025857 0.945552 -0.173222 0.275545
-0.210907 -2.915788 2.330147 -0.348501 -0.079294 0.933948
-1.263234 3.759065 -1.125684 0.925621 0.248690 0.285269
-1.543296 -3.721484 1.631756 0.831747 0.033677 -0.554132
-1.544467 0.586855 -0.581316 -0.147771 0.978768 0.142041
1.881349 -1.754507 0.248490 0.987281 -0.111143 -0.113682
1.855781 0.524446 -0.534833 -0.601145 -0.797839 0.045590
-1.191674 4.587830 -0.594351 0.958551 0.260556 0.115282
1.183222 1.427515 -1.699245 0.866044 -0.184960 -0.464497
-1.220808 1.562364 1.047675 0.927919 -0.236442 0.288204
-0.118606 1.530631 -2.004284 0.657695 -0.561603 0.502035
-2.142194 -1.785273 -1.478682 0.993712 -0.108148 0.028976
-1.212284 -4.810703 -0.980612 0.792525 -0.318454 -0.520087
-1.837220 -1.005253 -0.141317 0.616752 0.579838 -0.532357
-0.095869 2.598028 2.121582 0.144840 0.488814 -0.860280
-2.061309 -3.899353 0.496131 0.928706 0.203099 -0.310251
0.540415 4.938956 -0.007100 -0.118020 -0.992714 -0.024299
-0.677002 -4.503960 -2.360082 -0.174914 0.249447 -0.952461
1.349631 3.520441 -0.681881 0.997911 -0.016861 -0.062366
-1.955321 -0.220912 -0.728985 0.932168 -0.161062 -0.324224
-1.040377 -0.666336 -2.063138 0.027747 0.044108 0.998641
1.546234 -4.119263 1.579280 0.866586 -0.353018 0.352714
-2.205133 -3.904637 -0.482799 0.987639 0.149340 -0.047606
0.107649 -4.054599 -2.257111 0.027471 -0.185652 0.982231
1.217284 4.680644 -1.412379 0.964812 0.143760 -0.220162
0.242634 -4.832880 -1.120951 -0.147903 0.988787 0.020597
-0.107812 3.458893 1.218189 0.836932 -0.306394 -0.453505
0.494312 3.518182 0.835340 0.888648 0.384634 0.249724
1.484507 2.342054 -1.804901 0.759074 -0.441136 -0.478755
1.834170 -3.849601 1.188537 0.706733 -0.592650 0.386388
-2.164497 -2.316210 -0.703473 -0.181686 -0.824844 -0.535371
2.141620 -4.089934 -1.376307 0.252834 -0.456088 -0.853263
1.808960 -2.931259 -1.573849 -0.045131 0.460106 0.886716
0.535701 0.475737 -2.008490 0.440248 0.108972 -0.891239
-1.633738 0.842419 -1.909745 0.633729 0.404699 0.659247
-0.519900 4.948163 -1.575989 0.006420 0.998881 0.046863
-0.808162 -4.843934 0.682207 0.603830 0.761256 -0.236387
-2.250653 -3.502383 -0.833307 0.970257 -0.211675 -0.117450
-0.646065 -0.158577 -2.079299 0.061745 -0.033755 0.997521
-0.730321 -0.681623 -2.079002 -0.286531 -0.889840 0.355084
-0.921578 4.288365 0.427099 0.856797 -0.189651 -0.479512
-0.698605 2.043693 1.845693 0.383465 -0.576157 -0.721802
1.356568 0.246169 -1.981504 0.050446 -0.262252 -0.963680
-0.271634 3.273109 1.265916 0.856588 -0.429856 -0.285450
0.772117 4.930830 -0.127516 0.047221 0.964295 0.260585
-0.465039 -4.660165 -2.369242 -0.265535 0.707072 0.655393
1.387428 3.340686 -0.111183 0.999256 0.038479 -0.002456
1.316173 -2.770272 2.040663 0.220121 0.064194 0.973358
1.823596 -2.893620 1.417586 0.915819 0.054668 0.397852
-1.262836 -2.353590 1.818481 0.944133 -0.186231 -0.271903
1.691694 -4.843598 0.422571 0.101657 0.951962 0.288849
1.971820 -0.423756 -1.808872 0.632422 -0.768053 0.100676
1.186373 3.755091 -1.890233 0.239308 0.177821 -0.954522
-2.093863 -4.247263 -1.514447 0.995887 0.017023 0.088991
1.437335 -3.643599 1.864449 0.742842 -0.036797 0.668455
-1.497847 -4.576280 1.397810 0.830296 0.130844 -0.541746
-1.105470 3.027667 0.730462 0.576845 -0.599331 -0.555025
-0.843154 -1.129809 1.772154 -0.141886 0.144475 0.979283
-1.708353 -1.995133 -1.967384 0.087814 0.014886 0.996026
-0.688576 -0.385545 1.639878 -0.096502 -0.994457 -0.041744
2.055379 -0.911891 -0.652685 0.978758 0.060881 0.195772
-0.579901 -3.594548 2.223733 0.406385 -0.054706 -0.912063
-1.867569 -4.858187 0.291461 0.761050 0.489329 -0.425864
-1.392465 2.243478 -1.850397 0.000814 -0.910343 0.413853
0.263620 -4.868477 0.687515 -0.083073 -0.988545 0.126008
1.859783 -0.170137 0.414594 0.965471 -0.042504 0.257019
-2.162608 -3.744060 0.158482 0.962533 0.077585 -0.259828
1.922116 -3.550517 1.109961 0.760968 0.099729 0.641078
-1.279146 -2.562805 -1.898165 0.008595 0.038752 0.999212
1.362042 -4.291474 1.689714 -0.727588 0.562619 -0.392525
-0.769830 -3.669821 2.199500 -0.471231 -0.006635 0.881985
-1.234697 3.721537 -0.191106 0.994049 -0.028728 -0.105079
-0.069363 -4.005065 -2.260485 0.268757 -0.347266 0.898430
-0.225885 -4.567417 -2.368026 0.103378 -0.186096 0.977078
-0.061373 -3.282310 2.346920 0.162842 -0.084217 -0.983052
1.312614 3.890442 -0.947152 0.994943 0.063582 -0.077754
1.415667 3.698997 -1.225487 -0.325278 -0.652700 -0.684235
1.501996 -4.136010 -2.098083 -0.032068 -0.594516 0.803444
-1.922650 -4.773767 -2.079183 -0.691542 0.054915 -0.720246
0.833642 -0.978405 1.822075 -0.222088 -0.221022 -0.949645
0.460623 4.976490 -1.544040 -0.044726 0.998371 0.035432
1.579872 -4.900321 -1.616397 0.044925 -0.997596 0.052757
-0.712454 0.915729 2.114113 -0.422578 -0.563713 0.709687
0.891912 3.744035 -1.919063 -0.061885 -0.013971 0.997985
1.053465 -4.771859 0.460782 -0.146938 -0.986991 0.065261
1.940167 -1.322882 -0.331994 0.468758 0.094670 0.878239
-2.159643 -3.986498 -0.092937 0.250046 -0.498808 0.829860
2.051191 -1.252805 -1.483635 0.991575 0.069161 -0.109527
1.535148 -0.765700 1.312729 -0.467675 -0.718045 -0.515453
1.848735 -4.073907 0.801476 0.800379 -0.565530 0.198919
1.270629 4.392786 -0.129048 0.972710 -0.230440 -0.027078
0.342293 4.971063 -1.080228 0.020555 -0.999789 -0.000442
-0.936393 -4.800117 0.054878 -0.191879 -0.782786 0.591970
-1.709285 -2.981660 1.397656 0.704624 -0.000909 0.709581
-0.633171 -4.897950 -0.722070 0.120477 -0.887568 0.444645
1.645351 -3.629492 -1.826309 -0.459765 -0.548249 0.698598
-1.167580 1.034862 -0.780901 0.971066 0.238501 -0.012174
1.712661 0.352434 0.486750 0.286413 0.916967 0.277739
-0.284966 -1.620349 2.101982 -0.146437 -0.103171 0.983825
-0.657192 0.888986 2.125468 -0.422578 -0.563713 0.709687
1.272485 0.897985 -0.893557 0.917563 0.370631 -0.143912
-0.043041 -4.848600 -0.640725 -0.145544 -0.915686 -0.374614
-0.198001 0.150538 -2.078012 -0.068777 -0.028599 0.997222
1.482705 -0.294914 1.200940 0.833693 0.377179 0.403351
1.257407 4.259329 -1.842395 -0.387366 -0.574842 0.720766
-0.908749 -0.538110 1.593626 -0.704118 0.675496 0.218914
-0.396213 2.223699 1.811897 -0.808959 -0.271832 0.521242
-1.357449 -4.844304 0.256635 -0.255438 0.966825 -0.000462
1.107553 1.098913 -1.849986 -0.488716 -0.623480 0.610270
1.311267 -3.742884 1.987418 0.847511 -0.448730 0.283490
1.841751 -3.611658 1.290158 0.806889 -0.258269 0.531251
1.882862 -0.558565 0.181479 0.982759 -0.045959 0.179090
-1.850535 -1.567162 -0.147207 0.979971 -0.022209 0.197901
2.043237 -0.476661 -1.135651 0.998737 0.045582 -0.021152
-0.474836 1.797264 -2.003985 0.042577 -0.101937 0.993879
1.384998 3.262151 0.189542 -0.690289 -0.468712 -0.551190
2.124197 -3.846703 0.047550 -0.340636 -0.600423 -0.723505
-1.450755 -4.903266 -0.442488 -0.030809 -0.992955 -0.114416
-1.257735 1.941329 -0.559495 0.953324 0.284040 0.102440
-0.134420 -4.886164 -1.971617 0.033516 -0.969195 0.244003
-2.259375 -3.543170 -1.086364 0.986453 0.103261 0.127466
-0.911501 3.330934 0.538480 0.043826 -0.750390 -0.659541
1.311099 1.260194 -0.042282 0.951689 -0.304236 -0.041575
0.483050 3.575932 -1.946910 -0.082904 0.421042 0.903245
0.724270 -2.740740 2.316236 -0.097108 0.050190 0.994008
1.881840 -1.649625 -0.214482 0.757640 0.057854 0.650103
-0.397758 0.710801 -2.060855 0.006899 0.001977 0.999974
2.107833 -3.894144 -1.281969 -0.757740 -0.429358 0.491408
-0.276362 -4.835720 -0.133796 -0.195749 0.980654 0.000841
-0.538712 4.911579 -0.654510 -0.214420 -0.970750 0.108021
1.301496 1.455026 1.776343 0.999734 0.018462 0.013842
-2.232317 -3.112754 -0.442036 0.979444 -0.158723 -0.124487
-1.256236 2.904056 -0.034269 0.925741 -0.037171 -0.376328
-2.230428 -3.585229 -0.235822 0.498676 -0.502718 0.706114
1.303978 1.781230 1.675356 0.982082 0.125278 0.140786
-1.326128 4.090889 -1.219607 0.794262 -0.278838 -0.539812
-1.204391 -4.936392 -1.684192 -0.002566 -0.999997 0.000526
2.096491 -4.785480 -1.484113 0.902887 -0.429788 0.008791
-1.102441 -0.848795 -2.056049 0.013818 -0.024639 0.999601
-1.207111 -0.611840 -2.053516 0.141069 -0.021151 0.989774
-0.402892 -4.279980 2.228679 -0.122078 -0.153807 0.980531
-1.164253 -4.810582 -0.958890 -0.210198 -0.839447 -0.501144
-1.095225 -1.767779 1.780813 0.421254 -0.630883 -0.651561
-0.493693 -0.177091 1.655461 0.270464 -0.296093 -0.916067
1.840517 -0.803989 -0.273948 0.812577 -0.031898 0.581980
-1.025209 -4.873331 -0.918977 -0.302198 -0.854848 -0.421796
-1.548232 0.673332 -2.017488 0.103466 -0.202078 0.973889
1.366184 3.121252 0.560891 0.855946 -0.162327 0.490925
1.155841 4.742685 -1.665190 -0.673620 0.026166 0.738615
-0.938829 -2.948744 -1.877258 0.157136 -0.488882 0.858081
0.043551 -1.459944 2.058812 -0.064773 0.419960 0.905228
1.652124 -4.812267 0.657551 0.541030 -0.779479 0.315752
-2.175514 -3.904657 0.013626 0.978737 0.150288 -0.139600
2.125739 -2.120001 -0.414761 0.978569 0.126448 0.162521
0.790450 2.696115 1.865094 -0.268909 -0.578530 -0.770059
-1.562348 0.785376 -2.002574 0.488906 -0.431567 0.758104
-1.563627 -0.523345 0.878375 0.914499 -0.114455 -0.388062
1.572128 0.180182 -1.971789 -0.198248 -0.092593 0.975769
0.937508 2.051419 -1.944503 0.866819 0.223286 0.445834
0.392254 -2.320695 -1.950089 -0.170730 0.347312 0.922077
-2.158738 -1.956244 -1.196225 0.784162 0.190704 0.590527
-0.886241 -2.662902 -1.901252 0.075098 0.222515 0.972033
0.562804 -4.876522 0.639131 0.848378 0.402423 -0.343961
-0.481269 -4.977696 -1.287463 -0.391014 0.920373 -0.004627
-2.183624 -3.817019 0.024096 0.979689 0.170855 -0.104967
-1.423178 2.390925 -1.892254 0.163177 0.210268 0.963930
-1.432734 0.458378 -0.002868 0.084286 -0.907406 -0.411717
-1.848349 -1.620106 -0.051454 -0.558536 -0.285052 -0.778962
-0.530813 -4.395632 2.065699 -0.418826 -0.260687 0.869843
-1.116569 1.307546 1.724882 0.986650 -0.002554 -0.162836
-0.749594 0.855487 -2.046056 -0.118744 0.087361 -0.989074
-0.510854 -0.874480 1.847786 -0.519634 -0.284027 0.805797
1.683548 -4.856302 0.388378 0.099917 -0.985031 -0.140467
0.969515 -1.807649 -1.981230 -0.101332 0.054752 0.993345
1.982100 -0.156357 -1.780463 0.409957 -0.567560 -0.714010
1.189324 4.893979 -0.711529 0.883891 -0.007214 -0.467637
1.865429 0.119693 -0.477871 0.990732 0.062435 -0.120633
2.010159 0.516631 -1.143054 0.973383 0.210169 0.091406
1.635944 0.525985 -0.148970 -0.300780 -0.950695 -0.075562
-2.094054 -3.109420 0.440824 0.983180 -0.064133 -0.171012
1.399241 -2.871685 -1.712360 0.941722 0.024895 0.335470
0.013137 -2.680344 -1.932885 -0.068249 0.029865 0.997221
2.160720 -2.310192 -0.478644 0.975051 0.186214 0.120831
0.526155 -0.339865 -2.028487 -0.041780 -0.102978 0.993806
-1.211703 2.964633 0.532204 0.992998 -0.043665 -0.109763
1.869779 0.329873 0.178158 0.959835 -0.225877 0.166421
1.443634 -2.236254 -1.858693 0.193593 0.863475 -0.465761
1.157693 4.629001 -1.684629 0.862150 0.072171 -0.501486
1.165723 -0.930755 -1.993857 0.108027 -0.041995 -0.993261
0.977564 0.137976 1.425691 -0.342200 -0.538152 0.770254
0.705748 4.930378 -1.762264 0.133264 0.869160 -0.476237
-1.990110 0.121320 -1.093129 0.360813 -0.689633 0.627869
-1.921392 -2.936552 0.917525 0.933295 0.088491 -0.348037
0.415822 -2.818766 -1.909084 -0.093897 -0.231629 0.968262
1.033481 0.463548 1.372742 0.734760 -0.284838 0.615626
-0.988956 0.730603 1.333776 0.879759 0.419830 -0.223086
-0.907559 -4.790135 0.101578 0.127968 0.920483 -0.369237
2.086931 -3.997415 -0.520696 0.994983 -0.085123 0.052572
1.247936 4.465739 -1.349935 0.995460 -0.093600 0.017252
1.861661 -3.881782 -1.800468 -0.581880 -0.813240 -0.007523
1.378305 2.372335 -0.030480 0.877579 -0.316130 0.360439
-0.712405 -4.837179 1.064559 0.139373 -0.947452 -0.287939
2.068686 -1.047480 -0.833318 0.955032 -0.054600 -0.291432
-1.856196 0.747999 -1.680254 0.202378 -0.943543 -0.262240
-1.634693 -4.066013 1.406789 0.809291 -0.162963 -0.564350
0.163235 0.015733 1.653372 -0.202827 -0.191398 0.960327
1.739457 -4.445768 0.771410 0.604471 -0.780729 -0.158357
0.954744 -1.396478 1.909457 -0.355129 -0.084184 -0.931019
1.597549 -4.185443 1.333137 0.860113 -0.394047 0.323932
-2.111097 -1.784792 -0.779483 0.993222 0.115898 -0.008787
-0.297149 3.786500 -1.938676 0.169685 0.358852 0.917841
-1.536138 0.576841 -2.046207 -0.119762 0.198648 -0.972726
1.385966 2.335502 0.563831 -0.569823 0.818864 -0.069019
-0.963149 -4.001510 -2.253174 0.129826 -0.289568 0.948312
-2.056644 -2.981771 0.557171 0.149525 0.448122 0.881379
2.155136 -2.445450 -0.207224 0.949564 0.313570 -0.001098
1.380311 0.437430 0.486136 0.299217 0.938223 0.173800
-1.555812 -4.402785 1.339266 -0.735708 -0.102978 0.669424
-1.278152 3.417015 -1.873992 0.181225 -0.087293 0.979560
-0.382233 3.859428 -1.939054 -0.609035 0.788397 0.086632
1.676213 -1.554956 1.362813 0.711543 0.032910 0.701871
-1.389880 -1.856608 1.542497 0.688352 -0.032245 -0.724660
-1.224920 2.933078 0.473859 0.985425 -0.099836 -0.137732
0.472386 -2.252185 -1.939725 0.224143 -0.076545 -0.971546
-2.016619 0.055118 -1.626374 0.970453 0.210661 -0.117656
-0.913319 -4.736209 0.346155 0.812710 -0.199961 0.547282
-0.914419 -0.725361 1.632796 -0.090748 0.050428 0.994596
0.682406 1.982945 1.997826 -0.061716 0.796524 -0.601449
0.629537 2.790442 1.377096 0.632598 0.726885 0.267317
0.610885 2.189467 1.825332 -0.454324 -0.252386 -0.854337
-0.239317 0.085706 -2.074040 -0.056210 0.040281 0.997606
-1.507263 2.256425 -1.688247 -0.334136 -0.837930 0.431540
0.552672 3.014994 1.298835 0.984137 0.090143 0.152803
-1.432811 -2.521138 1.678799 0.826493 -0.067620 -0.558871
0.142507 -1.680246 -2.024841 0.132229 0.150245 -0.979766
1.234193 0.870131 1.054789 0.984545 -0.158725 0.074010
-1.451722 2.205380 -1.332848 -0.104551 -0.246843 0.963399
0.167485 -4.883442 0.771885 0.871719 0.489720 0.016721
1.490333 -0.660929 1.316133 0.813890 0.352427 0.461929
0.167185 4.468445 0.748742 0.564220 0.236140 0.791135
-0.046567 2.491064 2.053301 0.037999 -0.180648 0.982813
1.289186 0.728694 -0.295327 0.891523 0.451120 0.040970
-1.088379 3.420051 0.357979 0.753305 -0.551285 -0.358631
0.047728 4.939113 -0.118202 -0.422928 0.839943 0.340041
-1.183375 0.963406 -1.308556 0.479422 -0.485313 0.731181
-2.085553 -2.990582 0.472559 0.967790 -0.090535 -0.234915
-0.574184 -0.729452 -2.082277 -0.175862 0.054207 -0.982921
0.315415 1.736951 -1.989200 -0.021834 -0.025204 0.999444
-1.086908 4.695508 -1.750938 0.512551 -0.532653 0.673478
-0.911885 0.046615 -2.079031 0.718485 0.651273 0.244177
-1.258389 2.599119 -0.853351 0.972376 -0.104912 -0.208514
1.360788 1.941885 0.487748 0.965533 -0.198155 0.168760
-1.303412 -0.718844 1.320412 -0.585526 -0.102782 0.804111
2.061836 -0.900922 -0.822107 0.930121 -0.358985 -0.077495
-0.112278 3.935005 -1.943289 0.028625 -0.009371 0.999546
-0.131216 1.299225 -2.026321 0.080563 0.756355 0.649181
2.159920 -2.998632 0.397903 0.958129 0.028616 0.284905
0.396041 2.917745 2.150372 0.448869 0.364666 0.815804
0.881008 1.624253 2.095586 -0.276981 -0.821247 0.498835
-1.930768 -1.036850 -1.977218 -0.576170 -0.040874 -0.816307
-1.773158 -4.283334 0.966144 0.825461 0.287338 -0.485851
1.350549 2.139246 -0.546815 0.999359 -0.020738 -0.029194
0.521180 3.064141 1.445519 0.890317 0.302287 0.340527
-1.298598 -3.077616 1.875367 0.664697 0.732720 -0.145944
1.324056 3.818813 -0.882748 0.990958 0.032984 -0.130054
2.041538 -0.510852 -1.021551 0.993791 0.111246 0.001830
0.058100 -4.839641 0.675356 -0.239608 0.941920 -0.235319
0.137234 -0.605610 1.787369 0.012630 0.450285 0.892796
-0.539914 -0.448092 -2.088098 0.027751 0.025611 0.999287
-0.621410 -2.945301 -1.953684 0.207427 0.047109 0.977116
0.702469 1.385875 -1.967819 -0.097060 0.103739 0.989857
2.038183 -0.238937 -1.315108 0.994589 0.082694 -0.062888
0.549085 -2.356767 2.289868 0.216734 0.315614 0.923804
1.282033 -0.746557 -1.986627 -0.183838 -0.104513 0.977385
-1.497260 2.570003 -1.314045 -0.662920 0.495332 -0.561411
-1.910740 -4.112948 -1.911728 0.599557 -0.088577 0.795415
0.334317 1.767883 -1.983356 0.862786 0.045289 -0.503538
0.294252 2.741230 -1.974049 -0.000243 -0.092705 0.995694
-1.549945 -3.436368 1.599761 -0.634167 -0.121954 0.763518
-1.245342 -4.894436 -1.225016 0.219979 -0.970862 0.095058
-0.818236 2.437788 1.755656 0.802223 0.078358 -0.591860
-1.024109 2.206815 1.522097 0.586056 -0.419582 -0.693173
1.369928 2.536075 -0.816885 0.947217 0.220398 0.232819
-1.918694 -4.915761 -1.701950 -0.081434 0.965784 -0.246233
-1.529586 2.637149 -1.669046 0.343289 -0.454465 -0.821958
1.683235 0.464916 0.070214 -0.210484 -0.798141 -0.564506
0.512490 4.972493 -0.938259 -0.289676 -0.956795 -0.025131
0.806653 -4.109868 -2.216150 -0.164127 -0.245939 0.955289
0.064315 3.708727 0.864257 -0.210184 -0.922992 0.322348
0.584703 -4.890068 -1.646898 -0.011171 -0.867649 0.497052
-0.588502 4.011650 -1.912656 0.162076 -0.202058 -0.965870
0.444794 3.433994 -1.947383 -0.208828 -0.000370 -0.977953
-2.115459 -4.244722 -0.617659 0.991870 -0.111615 -0.061127
1.708228 -4.199070 0.975498 0.865103 -0.477924 0.152266
0.424039 -1.609530 -2.021669 -0.011643 0.072267 0.997317
1.001886 4.411627 0.329903 0.587573 0.367506 0.720901
1.087880 2.019719 1.752418 0.894512 0.422634 0.145700
-1.181607 0.561397 -0.039328 0.691657 -0.695773 -0.193677
0.321867 3.147425 -1.957684 -0.034650 -0.041269 0.998547
-0.884130 -4.573377 -2.351381 -0.563989 -0.413873 -0.714581
1.782761 -3.739799 -1.772682 -0.586373 -0.334340 0.737823
-0.445061 4.461817 0.642889 0.043069 -0.478596 0.876979
1.848266 -1.998029 -0.071508 0.886753 0.137606 0.441287
2.076054 -3.349671 0.752745 0.979770 -0.056347 0.192032
1.317389 0.392475 0.739049 0.064400 0.924915 0.374679
0.799764 2.623629 1.937127 0.555283 -0.062265 0.829327
0.126640 3.390177 1.435032 -0.078880 -0.853026 -0.515873
2.147277 -2.057010 -0.865940 0.991766 0.124035 0.031870
-0.279503 0.150763 -2.082955 0.123950 0.038482 -0.991542
1.767013 -4.622587 0.621033 0.911527 -0.161706 0.378112
1.607759 -2.733160 1.720021 0.874425 -0.328311 0.357203
0.720633 0.924463 2.231321 0.978938 -0.137408 0.150997
0.612500 1.305282 2.297372 -0.301505 -0.122917 -0.945508
-2.150619 -4.015704 -0.648449 0.836074 -0.528776 0.146204
0.246651 4.656156 0.630780 0.225609 -0.515355 -0.826747
1.174842 0.581024 1.103104 0.957907 -0.282992 -0.048272
1.365452 3.364541 -0.978709 0.951220 0.058244 0.302964
2.076936 -2.372212 -0.117063 0.874317 0.475734 0.096161
1.390963 2.511311 0.529449 0.997437 -0.042660 0.057442
-1.301389 0.750856 -0.972029 0.311107 -0.927413 -0.207648
1.673066 -0.589906 -1.945087 -0.084734 0.123778 0.988686
1.558887 -4.865864 -0.821658 0.213997 -0.914082 -0.344468
-0.876646 -2.464339 2.096680 -0.080454 0.347354 0.934276
0.595732 3.232463 0.823644 -0.610785 -0.570994 0.548550
0.990610 0.598202 1.608917 0.594541 -0.534842 0.600387
0.394432 -4.832723 -1.168864 0.308671 -0.929278 -0.202891
1.305225 0.926344 -1.960650 -0.234509 -0.624200 0.745238
0.796865 -0.125809 -2.026196 -0.033261 -0.060878 0.997591
1.217265 0.824759 1.169443 0.982384 -0.162228 0.092763
1.272336 0.867078 -0.595206 0.998185 0.060130 0.003327
-1.460341 2.687429 -1.305352 0.908307 -0.182774 0.376260
-1.571927 -2.109876 1.378643 -0.775536 0.031858 0.630500
-0.009075 -2.400898 -1.955465 0.320535 0.234442 0.917766
-1.550470 2.448579 -1.735917 0.998462 -0.018121 -0.052397
-2.094648 -4.684765 -0.477336 0.393289 0.084560 -0.915518
0.073637 -4.332143 -2.326333 0.220405 0.177014 -0.959212
1.253433 0.531856 0.569160 -0.196002 -0.965195 0.173152
0.772880 -0.748733 -2.022900 -0.138657 0.036784 0.989657
1.148421 2.946032 0.913644 0.425540 0.707824 0.563828
-1.328521 -1.155041 1.421990 0.736811 -0.168949 -0.654649
-0.360306 -3.046260 2.270290 -0.502914 0.271808 -0.820487
-0.085941 1.036638 -2.031005 0.036907 -0.062637 0.997354
0.907872 -3.689494 2.131162 0.099019 0.566806 0.817879
-0.362033 -4.178040 -2.304591 -0.019975 0.176973 -0.984013
1.286639 0.958336 0.091087 0.782640 -0.049114 0.620533
0.992781 -2.161480 -1.925348 -0.042442 -0.136514 -0.989728
0.282634 3.506276 -1.942042 0.343472 -0.269068 0.899794
1.850461 -1.738914 0.835158 0.973931 0.033375 0.224375
-1.230644 1.660397 -0.670585 0.995782 0.086312 0.031110
-2.027488 -4.823970 -0.328157 0.765778 0.325001 -0.554940
-0.125522 1.935186 2.138876 0.329137 -0.303693 -0.894114
0.620838 -1.694151 2.090554 -0.195386 -0.350126 -0.916098
-0.190183 4.934547 -1.101074 0.057626 -0.995838 0.070607
1.140286 0.972919 1.883998 0.183808 -0.004751 0.982951
-1.136813 0.712325 0.387057 0.986275 -0.019226 -0.163986
-1.557003 -4.922962 -1.942808 -0.131044 -0.991320 -0.010570
-2.107834 -1.430096 -1.676570 0.979434 -0.148851 0.136207
0.557693 0.988685 -2.002677 -0.337460 0.237979 0.910762
-1.233368 -3.277550 1.908473 0.546409 -0.431443 -0.717840
1.792855 -4.882791 -0.863206 0.080777 -0.981560 0.173248
-2.045958 -3.999217 0.471653 0.918801 0.321827 -0.228542
-1.524914 -2.926491 1.640244 0.815341 -0.307083 -0.490835
1.490545 -4.001383 1.733315 0.624743 -0.542545 0.561553
-1.384319 -1.547584 -2.016747 0.025221 0.118084 0.992683
1.953758 -0.582858 -1.822613 0.775828 -0.164978 -0.608994
-1.648730 -3.264956 1.433047 0.606986 -0.610968 -0.508218
1.495519 -4.622582 1.227049 -0.693567 0.390979 -0.605062
1.577170 -2.701344 -1.733428 0.124227 -0.029045 -0.991829
1.369771 2.658680 -0.283308 0.907698 -0.417857 0.038477
-2.065324 -4.542857 -0.143415 0.997959 0.020454 -0.060502
1.566619 2.792804 -1.699365 0.998376 -0.046175 0.033353
-0.998604 -0.447441 1.514845 -0.598297 0.151875 0.786749
-1.212849 4.478831 -0.533119 0.989489 -0.130966 -0.061307
-0.828374 0.676612 1.699400 0.679662 0.627109 -0.380519
1.617468 -1.871379 1.575303 0.149695 -0.988531 -0.019941
1.246536 4.746516 -0.847080 0.963334 0.265183 0.040822
-1.834596 -4.712880 0.694558 0.854440 0.385782 -0.348001
2.152920 -3.038883 0.425419 0.961449 0.186577 0.202001
-1.124686 2.678042 1.046858 -0.575343 0.536154 0.617672
-1.970260 0.233452 -0.990395 0.966524 -0.100468 -0.236090
0.860745 0.158966 1.455251 -0.160643 0.875522 0.455691
1.026783 2.603966 1.495682 0.965744 0.257540 0.031794
0.530549 0.043459 -2.023134 0.738101 -0.550160 -0.390553
-1.828660 0.503661 -0.797437 0.348108 -0.924786 -0.153597
0.655764 -2.466535 -1.898247 -0.631010 0.470970 0.616452
-1.992032 -2.877635 -1.679992 0.790633 -0.037022 0.611170
-1.685009 -4.517158 1.056942 0.678078 0.313105 -0.664963
1.891315 -2.044372 -0.138047 0.709118 0.167525 0.684899
2.104579 -3.874225 0.090645 0.884681 -0.456701 0.093616
-2.027004 -4.057219 0.465611 0.913111 0.337678 -0.228480
-2.239530 -3.270074 -0.365496 0.990013 -0.122937 -0.068996
-0.140040 -4.122308 2.318113 -0.129583 -0.000984 0.991568
-1.143152 -4.190541 1.874164 0.877117 0.256081 -0.406310
-1.968007 -2.902446 0.800652 0.929324 0.054697 -0.365192
1.603671 -4.590547 1.021709 0.076361 -0.115927 -0.990318
-1.241569 1.879674 0.727574 0.968304 0.096930 -0.230201
-1.196834 1.398424 -1.008208 0.992482 0.111758 -0.049888
1.973633 -2.832194 1.010344 0.914249 -0.006875 0.405095
1.465647 -3.939108 1.780859 -0.466193 0.526964 -0.710615
-0.655043 -0.356929 1.648161 0.419372 0.409782 -0.810066
1.413553 -4.843555 -2.203903 -0.202983 0.650906 0.731518
-1.354299 -4.835127 -0.741669 -0.144905 0.719544 0.679161
1.506045 0.604387 -0.310686 -0.226145 -0.946824 -0.228872
1.329051 -0.348290 -1.972605 0.088976 0.074521 -0.993242
-2.051556 -0.836004 -1.067963 0.909975 0.032557 -0.413383
1.293187 -4.827090 0.241469 0.162792 -0.921916 -0.351524
-1.128822 0.885394 0.989242 0.935790 0.351587 -0.026141
-0.712017 4.930337 -0.871826 0.126521 -0.980066 -0.153178
2.206006 -3.087002 0.202831 0.945162 0.315681 -0.083750
0.587655 2.914232 1.252109 0.899247 0.401488 0.173673
0.728546 2.290209 -1.955107 -0.106904 -0.023142 0.994000
1.519879 4.118353 -1.421677 0.904106 0.394318 0.164636
-1.624122 0.641551 -0.915419 0.090425 -0.859328 -0.503368
-2.242000 -2.968763 -0.879809 0.978299 -0.025612 0.205607
-0.495405 0.347918 1.568045 -0.305586 0.261648 -0.915509
1.861370 -4.886058 -1.035151 0.147950 0.988730 0.022893
0.532751 4.013466 0.455726 0.183610 -0.484172 0.855491
0.778650 1.443215 2.202930 -0.473864 -0.514542 -0.714633
1.881862 -1.191646 0.257593 0.998549 0.004095 -0.053702
-1.267871 -2.291534 -1.938764 0.065222 -0.182045 -0.981125
-1.695758 -1.149819 -2.018530 0.200131 -0.171673 0.964612
-1.918368 0.123502 -0.746504 0.828543 -0.042159 -0.558337
1.347583 2.011688 -0.508235 0.994612 -0.103329 -0.008317
-2.055140 -3.922934 -1.500480 0.902169 -0.086780 0.422563
-1.802011 -4.882006 0.102917 0.077226 -0.983981 0.160676
1.573555 -2.186605 1.726661 -0.097242 -0.103275 -0.989888
-1.689104 -0.542337 -2.040366 0.037545 -0.024412 0.998997
-0.497031 -2.687644 -1.938135 0.127968 0.139465 0.981923
0.153252 3.766771 -1.953224 -0.025578 0.002771 0.999669
0.933583 0.910048 2.096335 0.369030 -0.596567 0.712689
1.391667 2.494620 0.512216 -0.596938 0.333617 -0.729633
-0.143085 -2.526912 -1.952927 -0.086745 0.019332 0.996043
0.417202 0.915653 -2.001785 -0.318644 -0.171787 0.932177
0.399213 3.591201 0.900232 -0.620525 -0.566634 -0.542101
-0.904078 3.112712 0.761838 0.204210 -0.470007 -0.858715
1.032225 2.911745 0.998416 0.361122 0.579436 0.730647
1.402182 -2.713372 -1.751379 0.109685 -0.435543 -0.893461
-0.461444 4.921387 -0.068681 0.164192 0.982667 -0.086066
-2.091007 -2.825294 0.352211 0.746475 0.509029 -0.428562
-2.077565 -4.324251 -0.268771 0.982443 -0.029818 -0.184165
1.307581 1.493204 1.741453 0.993471 0.104711 0.045293
-1.498390 0.068337 -2.057004 0.035831 0.021684 0.999123
-1.760054 -2.858301 1.284206 0.995549 -0.038237 -0.086140
2.234619 -2.840211 -0.232289 0.988942 0.143765 0.036404
-1.321154 -0.100143 -2.064415 -0.016665 -0.042656 0.998951
1.377838 3.453417 0.043223 0.996197 -0.076712 0.041310
1.075431 -4.784270 -0.708427 -0.039871 -0.977000 0.209479
2.213273 -3.379202 -1.037997 0.860275 -0.418748 -0.290822
-0.029427 -1.509729 -2.035566 0.113953 -0.453470 0.883957
-0.279607 -4.825199 -0.535288 -0.043043 0.921228 0.386636
-0.295619 -4.819396 -0.034225 0.013490 -0.995426 0.094577
-1.073699 -2.010850 1.866514 -0.569098 0.191564 0.799644
-0.374942 3.331886 0.792793 -0.585092 0.399447 0.705769
-0.472255 -3.520277 2.229764 -0.155916 -0.016050 0.987640
-2.082175 -1.153185 -1.312889 0.981776 0.023735 -0.188552
0.286368 3.901311 -1.947159 -0.003289 0.018373 0.999826
-2.113325 -4.279391 -1.284605 0.998278 0.029839 -0.050495
1.864062 -0.692736 -0.155384 0.655973 -0.746749 0.109839
-0.189565 4.933217 -1.146887 -0.462001 -0.812157 -0.356309
-0.254623 -4.793161 0.382225 0.115795 0.985601 0.123212
0.390630 2.305752 1.913573 0.523702 -0.037604 0.851071
1.391255 2.684180 -0.875276 -0.733565 -0.488759 0.472225
2.054551 -4.819684 -1.729923 0.733717 -0.678777 0.030335
-1.944607 -1.885316 -0.402941 -0.434757 0.273450 0.858028
-0.018237 -2.373968 -1.961149 0.163194 0.090256 0.982457
-2.236965 -2.912069 -0.816277 0.975644 -0.219311 0.004590
1.352541 1.808683 1.415106 0.997297 -0.036103 0.063988
-2.222159 -3.752145 -1.084041 0.882032 0.319066 0.346722
-1.242000 1.803263 0.616813 0.995969 0.089475 -0.006311
0.447123 4.071881 -1.938028 -0.093430 -0.247591 0.964349
1.298313 1.294083 1.448306 0.987966 -0.154192 0.012164
0.086049 1.040546 2.365336 -0.046634 -0.087728 0.995052
-1.715408 -2.946428 1.384776 0.572850 0.737878 0.356902
-0.805931 -0.702405 1.681889 0.331146 -0.105965 -0.937611
1.358758 2.136014 -0.838413 0.818731 0.302036 -0.488317
1.913840 -4.820255 -0.278143 0.884593 -0.466227 0.011314
-0.134342 3.489510 1.143357 -0.372694 0.726603 0.577189
-0.895604 4.918099 -1.672170 0.378949 0.799043 -0.466828
-1.260483 3.004697 -0.452157 0.999799 -0.017362 -0.010019
2.052919 -4.297029 -0.219895 0.957964 0.135173 -0.253047
-1.558653 -3.025406 -1.794540 -0.059811 -0.139696 -0.988386
2.260181 -3.305096 -0.545803 0.992534 -0.114980 -0.040707
1.167481 2.191872 1.539400 -0.505792 -0.609174 -0.610804
0.638676 3.448789 -1.945015 -0.120397 0.110212 -0.986589
-1.048616 -4.445257 1.837911 0.448482 -0.032430 -0.893203
2.043462 -0.585892 -0.805820 0.981827 0.152616 0.112801
-1.150975 -3.260019 1.988693 -0.555875 -0.523892 0.645399
-1.211026 1.463683 1.102119 -0.277651 -0.686399 -0.672136
-0.404574 4.517685 -1.905280 -0.257395 -0.034784 -0.965680
1.052784 1.496506 -1.854932 -0.557976 -0.367706 0.743946
2.225501 -3.497123 0.063990 0.948900 -0.308177 -0.067934
1.889053 -0.625585 -1.875109 -0.236043 -0.455836 0.858194
1.493339 3.219699 -1.478280 0.996027 -0.066760 0.058941
1.435675 -0.536978 1.327335 0.529929 0.512326 0.675794
1.884338 -2.249808 0.213336 0.748387 0.617103 -0.243109
-1.560732 0.297217 0.409349 0.533850 -0.822829 -0.194827
-0.014074 -1.814691 -2.024198 -0.132676 0.055072 0.989628
-0.820985 -4.841979 0.922677 -0.153843 -0.988066 0.007578
-0.945426 0.688212 1.428162 0.806100 0.571271 -0.154445
0.955934 3.323883 0.648371 -0.512519 -0.359602 -0.779751
-2.012264 -4.061821 0.519079 0.727981 0.655808 -0.199896
-0.039739 -3.769263 2.342610 0.010653 0.084597 0.996358
1.171078 -4.588291 -2.252583 0.225390 0.149216 -0.962774
-1.831981 -4.915760 -0.793335 -0.071387 0.991036 -0.112918
-0.890138 1.832241 -1.936162 0.785032 0.082000 0.614004
1.889170 -0.382230 0.123299 0.997941 -0.061007 0.019777
-0.495703 4.836336 -1.871718 0.426093 0.222953 0.876776
-0.690637 4.849619 0.169884 0.369352 -0.819312 -0.438527
-0.292115 -0.853095 -2.087090 -0.035462 -0.047804 0.998227
-1.549124 -4.915517 -1.258843 0.100693 -0.994606 0.024917
1.203004 -1.903185 1.909628 0.397389 0.369662 0.839901
-1.087261 -0.456690 -2.064108 -0.584183 -0.429342 0.688764
0.871219 2.182086 1.782070 0.691907 -0.444805 0.568694
-0.547761 0.558160 1.802313 0.815472 0.349278 0.461529
-0.418672 -4.879439 -1.926694 0.375644 -0.789854 0.484791
1.774824 0.787423 -1.796911 -0.352499 -0.828225 0.435647
-0.141170 -0.626494 1.839766 -0.036972 0.211500 0.976678
1.052895 4.986897 -1.190721 0.478493 0.872389 -0.099905
-0.241364 -1.817511 -2.035696 0.056992 0.048674 0.997188
0.871424 -2.595604 -1.862339 0.211807 0.007123 -0.977285
-0.393830 -3.550591 -2.147599 0.629655 -0.461778 0.624737
1.316272 0.974030 -1.719362 0.444722 0.882794 -0.151316
1.585278 -1.593485 1.515678 0.693267 0.165656 0.701384
-1.921399 -2.877886 -1.723553 -0.643168 -0.587215 0.491440
1.352836 3.747773 -0.471563 0.999039 0.028945 -0.032915
1.951725 -3.097031 1.115053 0.948122 -0.068392 0.310462
2.149520 -2.099935 -1.093365 0.995189 -0.015838 0.096684
-1.252197 3.745667 -0.906184 0.994241 -0.019274 0.105418
-0.300817 -4.891662 -2.262941 0.009901 0.783160 0.621741
0.580181 -4.655877 2.206439 0.038730 -0.539838 0.840877
-1.812598 -1.047276 -2.016701 0.198317 0.070851 0.977574
0.022867 -1.741172 2.140718 -0.046002 -0.301110 -0.952479
-1.553043 -4.858614 -0.510696 -0.360071 0.922306 0.140361
2.229719 -3.360531 -0.978257 0.937708 -0.291291 -0.189352
2.090359 -1.377424 -0.723741 0.105498 0.334801 -0.936365
1.190368 -4.799314 -0.902504 -0.398968 -0.123016 0.908676
0.086984 -0.687555 -2.054422 -0.044908 0.020348 0.998784
0.473001 2.283334 1.876358 -0.397076 -0.147413 -0.905870
1.386998 2.307582 0.524782 0.999969 -0.006909 -0.003756
0.737462 2.710177 1.912353 -0.648737 -0.518681 -0.556875
-0.459291 2.797746 1.697458 0.500774 -0.865496 0.011874
-0.001040 0.922474 2.334297 -0.614602 -0.671275 0.414312
2.139508 -4.300103 -1.586542 0.968589 0.134320 -0.209268
0.175854 -4.838263 1.581294 -0.433210 -0.289105 0.853667
-1.561047 -3.346025 1.604956 -0.593360 -0.129198 0.794502
-1.433334 -2.610025 1.688260 0.840765 -0.000098 -0.541400
-0.194523 -0.158597 -2.073232 -0.230178 -0.043286 -0.972185
2.124139 -4.701748 -1.036258 0.086270 -0.443433 0.892146
1.777499 -4.747864 0.497321 0.081523 -0.923525 -0.374774
-0.365802 -4.908367 -0.847339 -0.267286 0.959190 0.092266
0.171594 0.739532 2.200603 0.019322 -0.669285 0.742755
-1.936098 -3.240979 0.898186 0.914979 0.243923 -0.321425
2.057779 -1.906494 -0.310342 0.949060 0.192776 0.249244
-1.387530 -4.917954 -2.031794 0.028920 0.998660 -0.042907
-0.222267 -1.319746 -2.053270 -0.058780 -0.007629 0.998242
-1.220570 3.658770 -0.058302 0.988057 0.068300 -0.138122
-0.299563 3.445133 0.861293 -0.381473 0.905521 -0.185768
-1.552391 -4.871223 0.174516 -0.714047 -0.293465 0.635622
1.354283 1.946680 -0.159042 0.553710 0.541287 -0.632783
-2.009308 -0.653276 -0.768317 0.985094 -0.130547 -0.112015
-1.220082 1.636065 1.418075 0.992038 0.084853 -0.093066
-1.035723 -2.968686 2.067673 -0.431525 0.286469 0.855408
1.877188 -0.575614 -0.040575 0.957553 -0.137445 -0.253378
1.456825 -4.298618 1.472048 0.815319 -0.420577 0.397958
1.728896 0.805434 -1.938702 0.340152 0.468303 -0.815469
-0.914245 0.612087 1.391048 0.828694 0.446361 -0.337679
-0.835804 -4.837008 0.614854 -0.164161 0.986419 0.005373
2.253406 -3.379053 -0.364334 0.998309 -0.056553 0.013430
-0.360233 4.937819 -1.298038 -0.077677 0.989815 0.119297
1.199219 2.776031 1.047662 -0.044285 0.819706 0.571070
1.366573 2.717403 -0.417827 0.999558 -0.020725 -0.021324
-0.521260 -4.788666 0.634529 0.040965 0.990899 0.128225
-1.809929 -2.985249 1.144639 0.911675 0.151121 -0.382113
-1.487704 3.469713 -1.757368 0.996029 -0.049823 0.073781
1.904849 -4.886113 -1.432691 -0.186363 0.982049 0.029137
1.574186 3.128865 -1.119642 0.417622 0.301200 -0.857246
0.377174 3.292990 -1.955540 0.013359 -0.055312 0.998380
0.548407 -4.892585 1.060041 -0.155135 0.987817 0.012247
-0.389118 -2.240726 2.231125 0.442121 -0.520192 -0.730705
-0.918574 0.474164 1.224707 0.982435 -0.031220 -0.183976
-1.485029 -0.254214 0.962270 0.812396 -0.167129 -0.558642
-0.573896 4.897638 0.006470 -0.077296 -0.996969 0.008889
0.548072 2.872522 1.879254 0.984997 -0.172391 0.007917
-1.240882 4.048887 -0.725456 0.920717 -0.317554 0.226802
0.728163 -0.803472 -2.023047 0.127823 -0.037516 -0.991087
-1.315651 0.934602 -1.963885 0.161795 -0.936874 0.309982
1.357499 0.611621 -0.161063 0.585535 0.772968 0.244272
-0.635414 -4.848104 0.240456 -0.145826 -0.891176 0.429580
1.991764 -4.154603 0.039133 0.994277 -0.050685 0.094044
1.870591 -0.093269 -0.232838 0.956477 -0.268767 0.113645
1.395903 -4.870600 0.331517 -0.090817 0.982533 0.162425
1.380061 -3.715756 -1.996932 -0.308624 -0.301889 0.902006
0.345514 -2.015271 -1.979524 0.151066 -0.118577 -0.981386
-0.599100 4.842044 0.239493 0.393292 -0.721896 -0.569375
0.041096 0.017863 1.647704 0.046788 -0.009431 0.998860
-2.242754 -3.115122 -0.683029 0.954462 0.023184 0.297430
0.865460 4.080035 0.427158 0.245209 -0.453883 0.856658
-1.770118 -0.070962 0.230991 0.975257 -0.154618 -0.158014
0.737139 4.924847 -0.080018 -0.059961 -0.998144 0.010667
1.286618 1.717136 -1.188372 0.987918 -0.105736 -0.113308
1.912900 -3.484728 1.170373 -0.225820 0.671000 -0.706233
1.366748 3.189362 -0.483533 0.690981 -0.703131 0.167788
-0.504229 -2.271908 2.199739 0.356208 -0.315690 -0.879463
0.611014 -4.834651 -1.241783 -0.447844 -0.868547 -0.212278
2.246424 -3.515512 -0.501798 0.927280 -0.368692 0.064940
1.509425 3.665841 -1.233600 -0.291551 0.558516 0.776568
1.553385 3.656551 -1.438596 0.987855 0.089644 0.126908
0.009867 -0.636810 1.841461 -0.069197 -0.704719 -0.706105
-1.486821 0.370232 0.252759 0.238119 -0.837252 -0.492249
1.298116 1.295110 -0.394086 0.992668 -0.119612 -0.017416
1.388059 -4.850276 1.109679 0.383683 -0.918274 0.097774
0.413487 2.707532 2.147267 0.191935 -0.590136 0.784156
-0.741035 -4.856970 1.814560 -0.087847 -0.988054 0.126621
2.002023 -4.112028 -0.044407 0.977878 -0.141938 0.153648
0.712472 -3.933335 2.220368 0.839333 -0.121986 0.529754
-0.667898 -2.478120 2.198418 0.417085 -0.042620 -0.907867
0.512220 -4.830227 -1.177029 0.169820 0.561953 0.809550
0.937230 0.595074 1.663391 0.544392 -0.585333 0.600852
-0.866989 -4.738756 0.264621 0.474867 0.642639 -0.601264
1.525999 3.737483 -1.397166 0.903345 0.198288 0.380329
1.186980 -4.804750 0.164399 0.031351 0.998447 0.046049
-1.302805 0.875078 -1.439088 -0.171439 0.980065 0.100409
-0.791802 4.925985 -0.455171 -0.060623 -0.984076 0.167092
1.298826 -4.776395 -0.563432 -0.055294 0.996675 -0.059848
1.254055 4.205541 0.068202 0.959197 0.103709 0.263030
1.113356 1.796835 1.875616 0.551495 0.180796 0.814350
1.184352 4.893030 -1.169438 0.971143 0.208455 -0.115882
-1.887647 0.347579 -2.004872 -0.465621 0.061143 -0.882869
-0.363881 2.936009 1.652997 -0.254265 -0.499859 -0.827944
0.953408 -1.869352 2.032944 0.376643 0.288414 0.880317
-2.178402 -3.844784 0.045227 0.994380 0.105671 0.006474
-1.638717 -0.633568 0.747915 -0.735486 0.178344 0.653647
-1.196429 1.428553 -1.089505 0.994875 0.093922 0.037442
-1.729165 -0.266846 0.415837 0.846967 -0.365346 -0.386225
0.044987 4.933775 0.087818 -0.046463 0.997072 -0.060738
-2.073566 -2.551530 -0.062947 -0.659350 0.750105 0.050993
0.825543 -0.816008 1.778988 -0.345394 -0.298960 -0.889565
-2.065415 -2.961518 0.531756 0.944680 -0.108496 -0.309528
-0.501874 0.967191 2.250593 0.217518 0.613506 -0.759142
-1.217076 2.036934 -1.703864 0.825569 0.518042 0.223759
0.385228 -3.271755 2.357625 -0.198518 -0.647293 -0.735936
-0.159315 -1.205067 1.947935 -0.199401 0.060141 0.978071
-1.242932 1.644870 0.034590 0.999629 0.027230 -0.000953
-0.375543 -3.306495 -2.079877 0.086423 -0.524921 0.846752
0.585116 3.933983 0.393805 0.139177 -0.284475 0.948527
-0.622867 -4.666832 -2.361083 0.010764 0.101216 0.994806
1.373778 -4.579626 1.454987 0.488650 0.086018 0.868229
0.514149 -0.004076 -2.029741 -0.076448 -0.103711 0.991665
-1.426512 0.660751 -0.784132 0.200613 -0.868690 -0.452916
-1.227172 4.159655 -0.286407 0.995530 -0.015673 -0.093139
2.081371 -1.280808 -0.720232 0.994993 0.083360 -0.055142
0.916325 -4.751305 0.763704 0.707982 0.703812 0.058397
-1.597837 0.110676 -2.054337 0.057369 0.096744 0.993655
2.136416 -4.594688 -0.840603 0.953998 -0.215633 0.208303
1.843140 -3.765501 1.280554 0.889867 -0.067591 0.451185
0.586720 -4.881637 0.739291 -0.696875 0.146145 0.702145
-0.592708 4.916353 -0.247796 0.109421 0.688913 0.716537
0.844737 -4.045019 -2.204916 -0.143663 -0.154036 0.977565
0.242129 4.932588 0.119979 0.210192 0.945768 -0.247673
-0.986692 3.708580 -1.896776 -0.192731 0.016294 -0.981116
-0.303490 -3.099431 -2.023359 -0.038052 -0.321526 0.946136
2.093958 -1.452244 -0.510114 0.999528 0.005209 -0.030274
1.339504 3.564603 -0.982498 0.968945 0.090643 0.230064
0.587760 -1.670744 -2.012501 -0.050534 -0.042589 -0.997814
-1.254090 -1.314189 1.535065 0.157661 -0.402482 -0.901749
1.496216 3.213212 -1.508194 0.982012 -0.157644 0.103924
-1.180162 -4.455187 -2.308274 0.852039 -0.211529 0.478838
1.331678 1.662851 1.308156 0.990720 -0.125846 -0.051347
-2.180805 -3.646518 0.103973 0.966933 0.246488 0.065461
-0.512519 -0.244881 -2.086627 0.106687 -0.064222 -0.992216
0.839998 -4.896934 -1.793046 -0.000167 -0.997241 0.074226
0.084466 -4.062197 2.347225 -0.128043 -0.214635 0.968265
-1.999104 -4.876456 -0.486796 0.518155 0.855282 -0.002824
-1.484698 3.488344 -1.465002 0.977646 0.204912 -0.047113
1.098335 -4.805401 0.107218 0.072767 -0.936023 0.344333
