ply
format ascii 1.0
element vertex 837
property float x
property float y
property float z
property float nx
property float ny
property float nz
end_header
1.746661 -2.233959 -1.786977 0.385740 -0.122679 -0.914415
1.243404 1.168594 -0.811311 0.985467 -0.167362 -0.029076
-2.241323 -3.767853 -0.474510 -0.974877 -0.213707 -0.062804
-1.153922 -3.152492 -1.893383 -0.225927 0.193550 -0.954723
1.875952 -0.319747 -0.088989 0.992679 -0.078081 -0.092149
-0.331885 3.154222 1.364315 -0.878767 0.430336 0.206350
1.356348 3.469968 -0.986639 0.897122 0.207113 0.390226
0.416881 0.898114 2.305872 0.152598 -0.444502 0.882685
-1.518800 2.712775 -1.222546 -0.925650 0.002479 -0.378373
-2.195478 -2.872656 -1.468671 -0.941933 0.012023 -0.335585
-0.889251 0.061101 -2.079159 0.015505 -0.033016 -0.999335
-0.917772 -3.335762 -2.034697 -0.283655 0.569506 -0.771494
-0.289278 3.007135 1.822524 -0.844576 0.512162 0.156147
0.503352 4.940720 -0.041067 -0.139655 0.989088 -0.046910
1.376349 2.168960 0.191809 0.999170 0.039200 0.011124
-0.656906 -1.180122 -2.037387 -0.176160 -0.027289 -0.983983
-0.715308 -4.156873 -2.287762 -0.149510 0.128738 -0.980343
-1.187908 3.294307 -1.900059 -0.022211 0.306240 -0.951695
-1.831184 -1.367255 -0.301096 -0.994689 0.084929 0.058149
0.298719 2.105683 2.165997 -0.005790 0.003510 0.999977
-1.776785 -0.652254 -2.033715 -0.029311 0.062659 -0.997604
1.647848 0.409651 0.089381 0.251600 0.950515 0.182260
-1.079054 0.995929 1.483997 -0.925592 -0.340769 0.164792
0.720421 -4.869233 0.591127 -0.114629 -0.978990 -0.168637
1.870662 -1.217930 0.058736 0.997216 -0.039561 -0.063209
0.318902 2.338256 -1.759031 0.041525 0.056050 -0.997564
2.242343 -3.317528 -0.812085 0.990807 -0.123889 -0.054334
1.902150 -4.890079 -1.500733 0.100551 -0.993371 0.055710
0.335616 4.819992 -1.857264 -0.008360 0.265437 -0.964092
1.832349 -0.553301 -1.426510 0.995710 0.003380 -0.092461
-1.553831 0.850504 -1.682480 -0.302395 0.940455 0.155249
1.011511 3.706263 0.261136 0.192656 0.550758 0.812127
1.221526 4.719086 -1.321144 0.966214 0.256212 0.028044
1.368429 3.640861 -0.094011 0.984887 0.092972 -0.146130
0.546989 3.683633 0.385264 0.761416 0.465932 0.450725
1.478562 0.838418 -1.403110 0.248346 0.939338 0.236576
-0.952365 -4.444896 -2.335464 -0.068835 0.201177 -0.977133
-1.255620 2.025696 -1.401585 -0.994636 -0.097012 0.035888
-0.082373 4.949059 -0.992344 -0.107662 0.990428 0.086377
-1.140911 -3.702290 1.997983 -0.514795 -0.007228 0.857283
-1.518629 -1.536985 1.315862 -0.807643 0.144192 0.571771
0.228780 -4.839550 -1.174127 0.394174 -0.879671 0.266092
-0.460855 3.450284 0.566987 -0.249184 0.694580 0.674882
0.471077 1.593910 2.316141 0.210534 0.140320 0.967463
0.509520 -4.825058 -0.536062 0.234106 -0.894106 0.381796
0.595241 1.608894 2.205500 0.160969 0.500223 0.850803
-0.818870 0.136726 1.411754 -0.464385 0.412976 0.783452
0.217053 -2.183621 -1.959380 0.011564 -0.188091 -0.982084
-0.347616 4.920454 -0.755034 0.004323 0.999515 0.030845
-2.171473 -3.961989 -0.082835 -0.900665 -0.426238 0.084401
2.022702 -4.142611 -0.126395 0.964308 -0.014869 0.264366
-1.265393 2.158367 -0.623713 -0.999172 -0.039989 -0.007550
1.906044 -2.151101 -1.721435 0.513075 -0.120301 -0.849871
-0.577893 -0.955747 -2.079254 0.065525 0.006757 -0.997828
1.634372 0.444847 -1.965090 0.016924 -0.127093 -0.991746
0.616356 -4.829306 -0.492323 -0.014772 -0.969241 -0.245668
-1.172005 1.090730 -1.206191 -0.999832 0.010217 -0.015241
-0.457922 -4.844834 1.653783 0.040865 -0.998791 -0.027317
1.206788 -4.492198 -2.262203 0.245415 -0.100815 -0.964162
0.309241 0.062931 1.605118 0.156510 0.368792 0.916241
1.590744 -2.599320 -1.757319 0.203081 -0.248649 -0.947065
1.840552 -2.100155 0.878674 0.968077 -0.073244 0.239711
0.525941 -4.758897 2.155298 0.342417 -0.643683 0.684415
0.657305 -4.898263 0.666230 0.045730 -0.900384 -0.432686
-1.178647 1.159600 -1.196959 -0.985382 0.170186 0.007676
-1.216245 1.134081 -0.056527 -0.973806 -0.215178 0.073482
0.396952 3.470728 -1.944849 -0.059102 0.018134 -0.998087
0.585664 3.139990 0.987765 0.969245 0.146978 0.197387
-0.929592 -4.843806 1.623183 0.046958 -0.991909 -0.117946
-1.291945 -4.831387 0.748586 0.083060 -0.986172 -0.143409
1.280219 1.469161 -1.065756 0.995828 -0.052018 -0.074971
-2.143446 -4.250213 -0.469061 -0.866018 -0.495744 0.065192
2.162630 -2.148779 -0.787817 0.979994 0.198315 -0.016824
0.561933 -4.219231 -2.268387 -0.020771 0.406417 -0.913452
1.347557 4.308109 -1.446009 0.554590 0.731705 0.396281
-2.013362 -0.832963 0.263991 -0.992541 0.058747 0.106820
-1.149369 -3.698576 1.992569 -0.628024 -0.012798 0.778089
-1.253474 2.858298 -0.909744 -0.998372 -0.056894 -0.003993
1.495496 2.787139 -1.426482 0.932733 -0.021339 -0.359937
-0.544689 4.917880 -0.533454 -0.011695 0.999489 0.029758
-1.269845 2.395229 -0.370327 -0.998891 0.045399 -0.012454
1.624367 0.702220 -1.728562 0.390343 0.914641 -0.105181
-0.832938 4.934077 -1.594177 -0.134464 0.990601 -0.025066
2.143901 -3.916094 -0.945165 0.987541 0.006948 0.157207
-1.911092 -2.759299 0.914267 -0.861366 0.217481 0.459075
1.394463 3.692144 -1.185404 0.621622 0.690733 0.369425
0.916230 0.958403 2.156209 0.504481 -0.524909 0.685543
-0.541026 -2.626762 2.336124 -0.184583 0.138133 0.973061
-1.404416 -3.787412 -2.061542 -0.245393 0.399123 -0.883450
-0.921094 -4.897165 -2.247160 0.022639 -0.862175 -0.506105
-0.809161 -4.921805 -1.735885 0.055086 -0.998338 -0.016921
-0.260395 1.011286 -2.019163 0.028383 0.041380 -0.998740
-1.225319 1.748578 1.122758 -0.994370 -0.105083 0.013634
1.967330 -4.433274 0.146192 0.970398 0.006375 0.241426
-1.451098 -4.106659 -2.146339 -0.311923 0.093323 -0.945513
1.309836 1.026637 -1.120653 0.816867 0.549361 0.175873
1.326572 -2.050771 -1.907512 0.112177 -0.109994 -0.987582
1.732731 -1.694170 -1.854391 0.365865 -0.044894 -0.929584
2.026008 -3.459153 -1.267410 0.707074 -0.004088 -0.707128
-1.091558 -4.824273 -1.180947 0.356299 -0.893451 -0.273490
-1.351460 -2.531090 -1.902305 0.037757 -0.107209 -0.993519
1.781476 -0.844041 0.747032 0.953938 0.140057 0.265306
-1.204149 4.040891 -0.040543 -0.972662 0.013980 0.231805
-1.279165 4.263537 -1.775851 -0.383153 0.698923 -0.603904
1.030013 -1.642799 -1.987548 0.066406 -0.071820 -0.995205
0.654938 1.715840 -2.136368 0.127313 0.052531 -0.990471
-0.223571 3.895868 -1.937740 -0.078621 -0.104189 -0.991445
-0.590727 4.915761 -0.583190 -0.011695 0.999489 0.029758
1.163741 4.101366 0.287622 0.722796 -0.199597 0.661610
0.326870 -4.858318 1.384864 -0.064713 -0.992916 -0.099650
0.244087 1.870261 -1.987257 0.112698 -0.079169 -0.990470
1.315666 -4.769742 1.218781 0.591234 -0.611199 0.526193
-0.704049 3.565567 0.412473 -0.199535 0.668680 0.716277
0.208814 2.423730 1.986588 -0.133208 -0.630865 0.764372
1.040110 -4.016333 2.113989 -0.004338 -0.358519 0.933512
2.031295 -0.082130 -0.789889 0.990593 0.107833 0.084251
1.660692 -2.561150 -1.752456 0.148889 -0.326167 -0.933513
1.957557 -1.003044 -0.289330 0.943859 0.047409 0.326929
-1.246786 2.215119 0.638340 -0.998146 -0.060853 -0.001226
-0.451215 0.855332 -2.051142 -0.024832 0.095583 -0.995112
2.014375 0.428171 -1.372558 0.999874 0.012208 -0.010158
-2.090151 -1.274692 -1.424293 -0.993231 0.103518 0.052687
0.690299 4.442327 -1.915739 0.061682 0.152518 -0.986374
-0.683643 1.057434 2.202006 -0.434232 0.026491 0.900412
-1.162849 -4.556025 -2.328746 0.006397 0.393725 -0.919206
-1.873546 -4.807482 -0.851896 0.044150 -0.998967 -0.010782
-1.712310 -4.582929 1.004790 -0.866026 -0.052655 0.497219
-1.868308 -3.087601 -1.690013 -0.487832 -0.215851 -0.845830
2.122959 -2.729059 0.432404 0.951552 0.206692 0.227655
-2.246327 -3.421520 -0.537545 -0.999100 0.028631 0.031294
-1.760552 -0.811256 0.495512 -0.943625 0.213615 0.252864
0.349201 -1.034764 -2.039908 0.035647 -0.021961 -0.999123
-0.566525 -0.301797 1.665831 -0.243650 0.111120 0.963477
0.885252 -2.473319 2.221896 0.289796 0.175322 0.940893
0.894340 -4.896096 -1.790298 -0.027709 -0.999327 0.024028
-1.425389 2.156646 -1.684248 -0.582263 -0.701301 -0.411275
1.895702 -1.745814 -0.218588 0.646594 0.174287 0.742658
0.456551 -4.914742 -1.716595 0.202936 -0.977894 -0.050400
0.053544 0.710096 2.173454 0.031976 -0.772660 0.634015
2.193663 -2.479870 -1.229680 0.989722 0.005881 -0.142885
-2.037434 -2.613280 -1.712018 -0.562023 -0.230060 -0.794483
0.382958 3.775677 0.703005 0.413192 0.807958 0.420091
1.267787 -4.788630 -0.020871 0.113851 -0.993313 -0.019182
2.036831 -4.531339 -0.142513 0.955107 -0.093145 0.281237
-2.092811 -3.198783 -1.491173 -0.640895 -0.224161 -0.734170
-1.166016 4.359205 -1.735337 -0.955320 0.111299 -0.273818
1.287984 0.947847 -0.161414 0.992290 -0.105786 -0.064578
1.993585 -4.756041 -0.311199 0.662378 -0.727725 0.177967
2.219731 -3.123019 -1.012903 0.992950 0.043425 -0.110288
0.929174 3.783804 0.252442 0.110035 -0.511861 0.851992
-2.235582 -2.900970 -0.795372 -0.994662 0.102554 0.011381
0.789892 -4.592612 1.515902 0.199161 -0.933984 -0.296664
-2.138494 -2.729326 -0.002775 -0.963794 0.255346 0.076801
-0.413837 -3.403670 2.219965 -0.123520 -0.048294 0.991166
1.121074 0.565765 1.284808 0.878846 -0.318586 0.355150
0.964069 4.745795 0.295351 0.529247 0.593704 0.606146
-0.437971 -3.301234 -2.070119 -0.128636 0.252357 -0.959046
-1.938905 -1.544084 -2.009225 -0.146219 -0.078474 -0.986135
1.632446 -4.865098 -0.433653 0.231223 -0.972706 -0.019446
-2.188164 -3.708631 -0.011436 -0.987759 0.079749 0.134061
-1.198072 -0.905239 -2.052531 -0.021857 -0.026602 -0.999407
1.256003 0.403748 0.830621 0.522355 0.815342 0.249726
1.753216 -1.620655 -1.846811 0.365865 -0.044894 -0.929584
1.370301 4.303641 -1.471365 0.597921 0.754926 0.269401
1.786358 -4.892600 -1.792807 -0.102984 -0.993850 -0.040699
-0.729113 -0.828139 1.523496 -0.449711 0.391328 0.802884
-0.606796 4.136459 0.475503 -0.192916 -0.529425 0.826131
1.358856 4.333396 -1.581183 0.671164 0.739174 0.056220
0.189521 1.953826 -1.995620 0.059309 0.057758 -0.996567
-0.657578 -3.750895 -2.202920 -0.053167 0.350773 -0.934950
1.477876 0.633255 -0.431339 0.194712 0.963253 0.185015
1.208401 -2.057602 2.092320 0.457848 0.349357 0.817511
-0.795851 -4.844899 1.600744 -0.226088 -0.938283 0.261744
-1.643694 3.194650 -1.076290 -0.713179 0.080077 0.696393
0.747466 -4.865871 0.553228 -0.114629 -0.978990 -0.168637
-1.394291 -4.551366 1.722704 -0.653876 -0.080443 0.752313
-1.633754 -0.422129 0.697688 -0.848699 0.177681 0.498136
-2.032554 -3.789585 -1.245497 -0.973072 0.148810 -0.176031
0.101806 -4.903981 -1.433473 -0.043962 -0.591340 -0.805224
-1.807727 -3.465895 1.204128 -0.929782 0.178167 0.322122
-0.014730 0.721741 2.184320 -0.207607 -0.762509 0.612764
-1.604055 -0.741497 -1.989629 -0.050750 0.012012 -0.998639
-2.052398 -1.005908 -1.850335 -0.955521 0.074582 -0.285337
0.967650 -2.151056 -1.941898 0.145945 0.028713 -0.988876
1.449318 -0.488609 -1.968506 0.213837 0.030188 -0.976403
2.102908 -3.875749 0.001558 0.827250 -0.561345 -0.023435
-1.233976 1.582911 -0.613722 -0.998219 -0.012834 -0.058262
0.505258 4.165629 -2.084939 0.138309 0.070930 -0.987846
-0.643387 4.943218 -1.332190 -0.003692 0.999394 0.034602
-1.943139 -0.919611 -1.969714 -0.566190 0.033883 -0.823578
0.701307 -4.586683 2.145569 0.816321 0.091033 0.570379
0.642778 -5.053432 -0.305037 -0.083860 -0.996418 0.010876
0.467733 3.108816 1.570396 0.817648 0.517282 0.252728
1.123815 3.006605 -1.726783 0.110673 0.034133 -0.993271
1.719202 -4.234739 0.893139 0.902580 -0.195493 0.383578
-0.454959 3.945999 0.395119 -0.260742 -0.544156 0.797438
2.023612 0.302292 -1.357355 0.996950 0.076138 -0.017162
0.229867 2.960525 2.215532 0.425815 0.668646 0.609585
0.159323 2.170709 -1.994890 0.239495 -0.197569 -0.950583
1.781953 -1.768775 -1.828347 0.365865 -0.044894 -0.929584
-1.914732 0.667226 -1.426780 -0.371129 0.914503 0.161079
0.652521 2.755053 1.663201 0.617910 0.784862 -0.046678
1.392984 0.021019 1.194196 0.641486 0.241624 0.728089
-0.415255 -1.768129 1.921534 -0.226557 0.189769 0.955332
-1.903752 -2.309806 -1.867422 -0.451740 -0.192459 -0.871143
1.886336 -0.711521 -0.006272 0.997519 -0.022195 -0.066810
-1.714831 -0.675298 0.599982 -0.940512 0.125920 0.315566
-1.822102 -4.805714 -0.449620 -0.018214 -0.987919 -0.153898
-1.092665 3.374306 -1.902462 -0.155898 0.003228 -0.987768
-0.409309 -2.918287 2.306944 0.120186 -0.405472 0.906172
-1.654264 -2.665092 1.280305 -0.966047 -0.120798 0.228386
-1.703066 -1.062321 0.747599 -0.918513 0.050946 0.392095
1.574482 -2.304230 1.762451 0.741958 0.289256 0.604839
-1.268119 4.172348 -1.138060 -0.935936 0.060361 0.346958
-1.828480 -2.145921 -0.121223 -0.980475 -0.001919 -0.196635
-2.137879 -3.266196 0.268765 -0.969106 0.055421 0.240337
1.360058 2.538147 -0.531904 0.999685 -0.022205 -0.011711
-1.265088 2.554002 -0.144305 -0.986694 0.162280 -0.010054
-1.265505 2.893859 -0.348070 -0.998949 -0.002278 -0.045767
-1.323106 -1.019517 1.315234 -0.651941 0.322363 0.686334
0.756366 4.861399 -1.854732 0.017502 0.154650 -0.987814
-0.182296 -4.286151 -2.320502 0.152403 0.353744 -0.922843
1.335367 1.623372 0.350510 0.997655 -0.054147 0.041859
-1.198495 1.344337 1.003187 -0.997170 -0.070240 -0.026793
-2.126087 -4.774340 -1.005738 -0.994126 -0.092779 0.055732
-0.814341 -0.271804 -2.297985 -0.020271 -0.000391 -0.999794
1.206491 -4.783994 -2.251503 -0.000263 -0.112934 -0.993603
0.383304 1.719957 2.187535 0.096223 0.658345 0.746541
-0.626602 -2.740654 2.279588 -0.366993 0.158700 0.916586
-1.845410 -1.413913 0.111797 -0.995036 -0.080044 0.059132
1.833480 -3.875606 1.143184 0.791165 -0.535694 0.295110
-1.826201 -3.289952 1.145945 -0.856758 -0.117848 0.502073
1.354859 1.844339 0.197116 0.998069 -0.061877 0.005461
-0.930249 -0.662613 -2.024836 -0.007612 0.011255 -0.999908
-1.243345 2.158613 0.641446 -0.998146 -0.060853 -0.001226
1.410382 3.268289 -2.095952 0.042101 0.001742 -0.999112
1.286433 1.217206 1.150513 0.990886 -0.130314 -0.034102
-1.875055 -0.985219 -1.997437 -0.288216 -0.076738 -0.954486
-0.411502 4.944328 -1.434038 -0.021683 0.999030 -0.038328
0.061045 -0.611386 -2.144789 0.103767 -0.127929 -0.986340
-2.163533 -2.752337 -0.216675 -0.979423 0.151957 0.132814
-2.004821 -0.572459 -0.849297 -0.976456 0.060072 0.207182
0.686531 -0.251991 -2.020089 -0.054240 0.227773 -0.972202
0.952613 -4.566869 1.966692 0.437637 -0.243812 0.865465
1.031768 1.150195 2.139831 0.516786 0.026022 0.855719
-1.819845 -1.512221 0.534129 -0.961418 0.047237 0.271006
1.350533 2.120251 -0.712007 0.996780 0.009736 0.079598
-1.287175 -4.927274 1.355298 -0.056888 -0.994350 0.089615
0.740688 1.413979 -1.969522 0.107869 -0.205641 -0.972664
-0.739109 -2.128624 -1.993880 -0.136601 -0.028517 -0.990216
1.535119 3.077838 -1.665286 0.935071 0.143573 0.324081
-1.589918 -1.692218 1.226255 -0.875165 0.244645 0.417415
0.653132 -1.585655 -2.018552 0.013028 0.053850 -0.998464
-1.408867 -2.698455 1.727874 -0.841042 -0.012041 0.540835
-1.344579 -0.000645 1.061115 -0.680074 0.264532 0.683756
1.361049 1.966354 0.106085 0.996943 -0.058544 -0.051751
-0.883952 0.764646 1.721364 -0.743264 -0.544655 0.388470
-1.079502 -2.756986 -1.918860 -0.053693 -0.149542 -0.987297
1.239533 -1.007958 -1.982714 0.143835 0.025560 -0.989272
1.370553 2.393665 1.067691 0.993392 -0.077965 0.084223
-0.256187 -4.841006 -1.770002 0.191024 -0.937850 0.289737
-0.309862 1.387755 -2.022768 0.110505 0.118084 -0.986836
-0.497653 1.384702 -2.023086 -0.122465 0.348404 -0.929310
0.517477 4.939866 -0.115244 -0.046604 0.981200 0.187282
-1.953192 -4.219102 0.470655 -0.900770 -0.347809 0.260080
-1.232197 2.312241 0.854985 -0.997543 0.058361 0.038762
0.105350 3.867428 0.594052 -0.076563 0.783270 0.616949
1.693444 0.053076 0.803519 0.841746 0.189971 0.505346
1.193445 0.653057 1.055868 0.981485 -0.120110 0.149202
-1.512766 2.273812 -1.696479 -0.864222 -0.496671 -0.080234
0.797326 4.957274 -1.724719 0.115663 0.617285 -0.778191
-1.835831 -2.066201 -0.344556 -0.989848 -0.115439 -0.082914
-0.011920 0.398311 1.796585 -0.119633 -0.873370 0.472137
0.845646 -1.881956 1.901137 0.312108 0.302596 0.900569
1.745439 -2.284933 -1.780654 0.385740 -0.122679 -0.914415
-1.203658 2.984944 -0.564364 -0.999090 -0.025187 -0.034432
0.233610 4.319368 -1.934005 -0.053984 -0.031811 -0.998035
2.139904 -2.156272 -1.295462 0.988985 -0.067833 -0.131561
1.259353 0.764120 0.563844 0.996152 -0.021048 0.085080
1.348634 0.689675 -1.969638 0.096948 0.085646 -0.991598
-1.475527 0.624445 -0.659531 -0.190035 0.962567 0.193265
-0.506351 2.243590 -1.981573 -0.002057 -0.075739 -0.997126
1.914981 -3.098086 -1.465721 0.455777 -0.356717 -0.815488
1.344149 3.851764 -0.655417 0.996827 0.049628 -0.062240
1.008785 0.924612 2.059596 0.519128 -0.703136 0.485907
-1.201415 -4.870763 -0.414359 -0.143063 -0.927191 -0.346194
-1.246872 3.398692 -0.627652 -0.977317 0.139613 0.159249
1.297525 1.318892 1.708221 0.958605 -0.274825 0.074480
-1.674529 -0.796084 0.713379 -0.903291 0.052158 0.425847
-0.541261 0.348263 -2.079660 -0.079840 -0.031511 -0.996309
1.640845 -4.859389 0.259261 -0.176377 -0.976393 -0.124694
2.477287 -2.994299 -0.657646 0.989686 0.139558 -0.032344
1.364485 2.258217 -0.284769 0.999598 -0.024980 0.013433
-1.341405 -3.664512 1.652386 -0.702137 0.367212 0.610048
0.764213 -0.161786 -2.027327 0.033070 -0.002481 -0.999450
-2.038054 -4.868635 -1.692077 -0.696465 -0.714322 0.068418
-1.154490 0.868049 -0.688619 -0.964283 0.258166 0.059236
1.790295 -3.791997 -2.021905 0.471996 0.487417 -0.734605
1.265190 -3.563812 2.044998 0.606142 -0.263386 0.750480
1.398048 2.407769 -1.064449 0.814931 -0.144743 0.561193
-1.308707 -1.237915 -2.030914 0.057313 -0.095496 -0.993779
-1.835624 -1.051832 -0.479668 -0.831739 0.071814 0.550503
-1.388643 -4.807172 -2.269353 -0.184370 -0.344016 -0.920685
-2.391193 -2.955168 0.156213 -0.980787 0.140072 0.135785
-0.170772 -4.769502 -0.392259 0.262686 -0.964858 0.006679
-2.004416 -3.146498 0.735540 -0.891998 -0.205681 0.402536
-1.563658 -4.910349 -2.113495 -0.257154 -0.910634 -0.323447
-0.170172 -2.915363 2.294071 0.022022 -0.536638 0.843525
-1.136053 0.133891 -2.068949 0.053702 0.015671 -0.998434
1.878190 -0.275933 -0.142704 0.992063 -0.008966 -0.125424
-0.355563 0.771156 2.135413 -0.266157 -0.752736 0.602120
-0.313092 -4.801961 0.931293 -0.282893 -0.798079 0.532017
2.224100 -3.164163 0.126972 0.969435 -0.012986 0.245002
1.604469 3.444533 -1.177565 0.944328 0.100561 0.313259
1.580960 0.094044 0.976565 0.790961 0.213037 0.573582
0.201552 -3.034919 -1.909688 0.206982 0.375474 -0.903426
-1.227488 4.268467 -0.870197 -0.992575 0.108729 -0.054528
-2.064934 0.188600 -1.634298 -0.992295 0.033273 0.119349
-1.972875 -3.011454 0.774126 -0.933137 -0.052106 0.355726
-0.022850 0.834519 2.281489 -0.052731 -0.653533 0.755059
-0.290070 -4.866690 -1.892604 0.054211 -0.984501 0.166792
0.620078 3.867482 -1.994133 0.153758 0.100551 -0.982979
-1.450098 2.175813 -1.598618 -0.737358 -0.674642 0.034070
-1.415450 -4.961169 -0.913523 -0.217916 -0.957008 0.191437
0.340053 4.965982 -0.809775 -0.189039 0.981850 -0.015305
-1.590158 -1.300626 -2.026632 -0.037527 -0.109186 -0.993313
-0.166767 -0.709311 1.850261 0.048294 0.017682 0.998677
0.392425 -4.920307 -1.775900 -0.022300 -0.954687 -0.296776
-1.587948 0.582210 -0.639290 -0.291944 0.909499 0.295938
-0.058992 -5.058142 -1.412242 -0.195063 -0.899584 0.390767
-1.939661 0.266233 -0.854567 -0.898528 0.264870 0.349987
2.110543 -3.043671 0.849164 0.937088 0.214188 0.275663
1.426850 -2.264820 1.866959 0.542595 0.251034 0.801606
-1.391955 -0.234874 -2.151090 -0.053586 -0.032626 -0.998030
1.325794 -3.439958 2.004174 0.562700 0.365521 0.741460
2.246833 -2.968296 -0.332275 0.994042 -0.035141 0.103182
0.396828 4.933800 0.219779 0.049742 0.985012 0.165159
1.915349 -1.594105 0.751244 0.964884 -0.118801 0.234277
2.001298 -4.007890 0.368164 0.830614 -0.534443 0.156371
-0.633992 -4.829040 1.893937 -0.200745 -0.717707 0.666782
1.325419 4.071321 -0.632744 0.976927 0.183863 -0.108669
0.745313 3.599355 0.149751 -0.028398 0.742287 0.669480
-0.178181 -1.049563 1.931804 0.179445 0.297405 0.937737
0.789069 1.038368 -2.033458 0.103797 0.006670 -0.994576
2.044001 -0.041188 -1.107922 0.996703 0.017107 -0.079306
1.414633 2.094682 -1.197678 0.655266 -0.751613 0.075525
-1.167326 -0.079258 -2.067645 0.005372 0.135669 -0.990740
1.380769 2.399649 0.601535 0.997957 0.060983 -0.019075
0.936078 3.106794 -1.933114 0.009358 0.198217 -0.980114
-1.944151 -3.063967 -1.648232 -0.487832 -0.215851 -0.845830
0.406712 0.338584 -2.017996 0.055757 0.084413 -0.994870
0.509622 -4.822817 0.370993 0.143525 -0.988906 -0.038290
-1.734568 -0.538469 0.486246 -0.940709 0.126997 0.314545
0.677350 -4.782022 1.844216 0.086942 -0.995593 -0.035148
-1.999246 0.331389 -1.872992 -0.958663 0.136461 -0.249686
0.330529 -3.539582 2.322725 0.107171 -0.041262 0.993384
-1.820378 -2.445477 0.574985 -0.976637 0.195684 0.088820
-2.087049 -1.547137 -0.193723 -0.946955 0.128881 -0.294392
-1.061793 -4.888492 -0.481539 -0.231908 -0.779419 -0.582001
0.372883 -4.649024 2.236642 0.130842 -0.299958 0.944937
1.304710 3.983471 -1.890206 0.201259 0.246490 -0.948018
1.323951 -4.900756 -2.008904 0.024688 -0.978603 0.204273
-0.365572 -4.868269 1.809243 0.132390 -0.982185 0.133359
-0.691036 -2.947644 -1.999846 -0.261247 0.337502 -0.904346
-0.139432 -3.534625 2.341336 -0.254478 -0.110082 0.960793
2.165261 -2.193178 -0.587484 0.966433 0.201644 0.159209
0.539832 2.922619 1.644656 0.973021 0.221727 0.063775
-0.943291 4.924493 -0.840147 0.026663 0.947849 0.317603
-0.930644 -1.814615 -2.010062 -0.070196 -0.100116 -0.992496
-0.310181 -1.861038 2.409367 -0.101871 0.258984 0.960494
-0.478787 -2.934467 -1.959037 0.018256 0.303954 -0.952512
1.057875 2.592405 -1.904319 0.216751 -0.288760 -0.932543
1.852344 -0.623042 -0.306411 0.985428 -0.165327 0.039985
-1.246548 1.730804 -0.240251 -0.992522 -0.121372 -0.013018
1.388834 2.754791 -0.110103 0.994101 -0.059331 -0.090793
1.522785 -4.147489 -2.006755 0.295211 0.294224 -0.909001
-0.512604 -4.848879 -0.695981 0.285514 -0.819508 0.496878
2.160472 -4.751668 -1.564977 0.968847 -0.169498 -0.180571
-1.093477 -0.611566 1.479235 -0.623174 0.232543 0.746711
1.502003 -3.553114 -2.071151 0.408230 0.500051 -0.763739
1.037858 3.512239 0.421822 0.289511 0.651314 0.701408
0.224776 0.696554 2.147943 0.085407 -0.778126 0.622275
-1.523147 -3.238714 -1.789543 -0.456661 0.362893 -0.812262
-0.576200 3.969989 0.375059 -0.236316 -0.542464 0.806156
0.264360 2.867549 2.225053 0.216821 -0.114756 0.969443
-2.019600 -0.080644 -1.384850 -0.975626 0.188075 0.113053
1.303008 1.327018 0.753435 0.993903 -0.108468 0.019786
1.232856 3.894610 0.109604 0.532705 -0.324932 0.781437
1.105599 0.920223 -1.965735 0.123164 0.080154 -0.989144
-0.054977 4.993225 -0.145598 -0.046940 0.997954 -0.043411
2.154910 -4.289212 -0.878177 0.987173 0.024596 0.157748
0.192134 4.958813 -0.372696 -0.068219 0.997135 -0.032687
-0.112670 2.150578 -2.001104 0.003062 -0.026941 -0.999632
-0.727397 -4.845015 0.131551 -0.514971 -0.856344 0.038459
-1.882117 -4.114603 0.847263 -0.848937 -0.242512 0.469568
0.899029 -3.955928 2.081189 -0.557042 -0.077637 0.826847
-0.160480 1.355639 -2.023830 0.006573 0.138964 -0.990276
1.325709 1.584544 1.054873 0.992749 -0.120066 0.005799
-1.216562 1.327750 -0.366652 -0.991982 -0.099207 -0.078287
1.394606 3.172897 -0.123968 0.997612 0.035019 0.059530
-0.905248 -4.915943 -2.183568 0.031016 -0.998457 -0.046063
-2.013997 -4.700303 0.057673 -0.968471 -0.200506 0.147858
-1.130863 0.490122 0.387339 -0.868323 0.449338 0.210024
1.573514 4.142214 -1.340037 0.662074 0.513555 0.545820
-1.292518 3.754080 -1.866625 -0.262640 0.123765 -0.956923
1.216814 4.739755 -1.347594 0.966214 0.256212 0.028044
-0.589035 4.924541 -0.407246 -0.043296 0.972570 -0.228544
-1.281852 2.884475 -0.396425 -0.998949 -0.002278 -0.045767
1.161652 2.483218 1.339413 0.701642 0.388650 0.597201
0.477838 -2.982549 -1.960936 0.074716 0.350853 -0.933445
-0.274745 -3.168867 -2.050434 0.025882 0.273497 -0.961524
0.041561 3.109855 -1.952612 -0.043552 -0.042981 -0.998126
-1.308349 0.862007 -1.392082 -0.445201 0.855383 0.264794
-1.134787 1.523139 1.740134 -0.872657 0.103924 0.477147
1.379522 3.374949 0.154413 0.993263 0.101261 -0.056339
-0.904896 -4.458197 1.917270 -0.441877 -0.050398 0.895659
1.278116 1.045491 -0.396594 0.996490 -0.064488 -0.053382
1.086033 3.784816 -1.792488 0.114365 0.358144 -0.926635
-0.458302 4.925168 -0.903632 -0.119619 0.991923 -0.042181
-1.539338 2.320108 -1.462387 -0.958029 -0.286671 -0.001011
-0.596013 -4.776190 0.350025 -0.322665 -0.800363 0.505279
-1.764544 -1.312814 0.658638 -0.929771 0.116362 0.349264
0.759681 -0.981924 1.844087 0.304746 0.303870 0.902659
-2.085102 -1.250812 -0.878524 -0.979196 0.083879 0.184766
1.327484 3.482461 0.286185 0.756130 0.331904 0.564010
-1.487975 -0.950851 -2.034708 -0.050750 0.012012 -0.998639
0.494940 0.642066 2.013951 0.280057 -0.786709 0.550143
-2.070946 -4.258901 -0.332148 -0.977850 0.086510 0.190592
1.310374 0.919789 -1.371831 0.538897 0.828467 0.152421
1.327342 -0.344113 1.619916 0.663880 0.312526 0.679405
-0.870133 -1.716427 1.913465 -0.375763 0.241581 0.894674
1.127349 2.404936 1.550333 0.817316 0.239233 0.524177
-1.708117 0.142505 0.320890 -0.882738 0.326557 0.337838
1.349413 3.508848 -0.449312 0.992244 0.123580 0.013398
2.034925 -4.561514 -0.183691 0.916093 -0.361939 0.172552
0.537010 3.133334 1.201734 0.892546 0.151323 0.424809
1.949409 -4.725611 -0.062172 0.931008 -0.238155 0.276599
1.941655 -0.384134 -1.859922 0.849857 -0.009939 -0.526919
-1.234901 1.885739 0.981238 -0.997505 -0.018891 0.068026
-0.323261 0.183195 1.793089 -0.284208 0.403918 0.869527
-2.115794 -4.432808 -0.516046 -0.972630 -0.133533 0.190159
-1.154668 1.026343 0.956660 -0.978530 -0.201795 0.041934
-2.238263 -3.190174 -0.593901 -0.999344 -0.004236 0.035954
-1.813736 -1.422989 -2.011611 -0.168488 -0.061256 -0.983799
-0.563767 0.224470 -2.080649 -0.078549 -0.013101 -0.996824
1.694644 -2.358173 1.482518 0.944475 -0.242694 0.221510
-1.265484 2.287343 -0.005922 -0.995705 -0.089924 0.022034
-1.830658 -0.920714 -0.053513 -0.997657 0.067791 0.009229
1.422055 -1.082037 1.519369 0.633704 0.279106 0.721470
2.189893 -4.172041 -1.169553 0.993301 -0.103550 -0.051299
0.610681 0.783529 2.147974 0.287485 -0.763687 0.578043
1.522813 3.311716 -1.106704 0.683263 0.308746 0.661685
-0.246227 -2.517067 -1.956064 -0.018107 -0.173351 -0.984694
1.890687 -2.679495 1.103648 0.593225 0.746955 0.300238
-0.387896 -4.817948 0.230263 0.058750 -0.970842 0.232409
2.059183 -1.849128 -1.407544 0.973486 -0.081074 -0.213899
1.301841 4.080485 -0.050188 0.959523 0.210809 0.186749
1.558103 0.731423 -0.940915 0.228217 0.951023 0.208502
-1.233546 1.679008 -0.650052 -0.988312 -0.143073 -0.052634
-2.188780 -3.379963 -1.339707 -0.763939 -0.243077 -0.597755
1.459088 -0.751358 1.381097 0.676357 0.165542 0.717731
1.833180 -1.091831 0.612111 0.986266 0.107171 0.125677
0.708089 -4.829141 1.859345 0.287487 -0.946797 0.144663
1.563770 -4.023587 1.794803 0.748755 -0.400994 0.527797
1.643518 -4.461929 1.004729 0.894795 -0.226410 0.384812
1.280301 2.793873 0.798975 0.357408 0.715368 0.600423
-1.167884 1.894871 -1.637281 -0.908837 -0.225319 -0.351066
-1.935031 -1.215328 -0.504410 -0.616424 -0.061367 0.785019
-1.411276 -4.720037 1.451969 -0.579489 -0.597528 0.554214
-1.205872 -4.925866 -1.596990 0.070253 -0.988722 0.132262
1.709317 -3.257164 1.573084 0.639850 0.413044 0.648064
1.278516 4.495344 -0.731622 0.996174 0.000811 -0.087386
-1.102096 -2.440750 -1.924569 -0.117971 -0.209783 -0.970605
1.256868 2.992036 -1.744473 0.612559 -0.020824 -0.790151
-1.246145 3.463891 -0.197287 -0.997307 -0.041621 -0.060385
0.324912 3.872447 0.573969 0.091420 0.797634 0.596173
-0.702951 -4.910730 -1.631642 0.206024 -0.973308 0.101121
-2.058472 -4.878913 -1.805888 -0.935207 -0.249190 -0.251579
-1.611438 -0.251814 0.701382 -0.893296 -0.136332 0.428294
-0.958355 -1.209542 -2.029394 0.038505 -0.057583 -0.997598
-1.844985 -1.152302 0.132248 -0.994969 0.023401 0.097412
-1.308507 -4.929549 -1.813127 -0.029352 -0.998992 -0.033975
1.530326 2.381545 -1.003101 0.616218 -0.176366 0.767574
1.280209 0.775029 -0.071357 0.998566 0.006158 -0.053177
-0.130129 -4.845662 -1.818272 0.050889 -0.984604 0.167231
-0.748251 0.765505 2.011493 -0.337564 -0.710580 0.617354
2.104434 -1.556885 -1.037896 0.998967 0.044689 -0.008264
-2.057130 -0.788723 -1.400097 -0.996920 0.077702 -0.010634
-1.167450 0.783385 -0.170539 -0.995962 -0.036601 -0.081975
-1.142250 -4.848834 0.138970 -0.376252 -0.883599 0.278725
0.315661 2.962827 -1.967473 0.064656 -0.063861 -0.995862
1.289801 4.264215 -0.102505 0.943319 0.204630 0.261296
-0.627065 -0.171235 1.616718 -0.336675 0.341301 0.877589
1.287160 0.740704 -0.386705 0.944354 0.328343 0.019667
-0.841871 0.872462 1.934832 -0.651910 -0.595683 0.469228
1.763365 -4.171541 0.865374 0.778537 -0.588125 0.219063
-1.144437 1.358026 -1.636386 -0.990776 -0.027201 -0.132755
0.433465 -2.351961 -1.962319 0.017852 -0.241709 -0.970185
1.382849 2.457644 0.767962 0.995864 -0.084434 -0.033546
-1.881633 -0.684587 -2.017027 -0.305973 0.025371 -0.951702
-2.085670 -1.408335 -0.865157 -0.989438 0.080487 0.120560
-1.534858 -0.764691 1.099082 -0.864181 0.171924 0.472900
1.367806 2.550515 -0.361395 0.992293 0.059316 -0.108790
1.407151 -2.556068 1.894763 0.546942 0.179085 0.817792
-2.126525 -2.542905 -1.652759 -0.667414 -0.203516 -0.716338
1.345825 1.776705 0.742816 0.995258 -0.063345 0.073814
1.393334 2.720382 0.016165 0.997788 0.009539 0.065787
1.087112 1.159454 -1.846409 0.665832 0.178830 -0.724353
0.682402 -2.131754 2.194338 0.320105 0.068286 0.944918
2.185580 -2.971529 0.155775 0.974949 0.038982 0.218988
1.681867 0.770981 -1.300399 0.300314 0.928564 0.218129
-0.535096 -1.267462 -1.844025 -0.024735 -0.072920 -0.997031
-1.714883 -0.108126 0.394686 -0.925160 0.052365 0.375947
-0.001991 1.583663 -1.946393 0.030726 0.032003 -0.999015
1.870116 -1.752311 0.761697 0.984219 -0.061914 0.165770
-0.872448 1.401899 -1.983355 -0.538896 -0.002569 -0.842368
-1.010208 -3.067069 2.088650 -0.538963 0.284007 0.793006
-1.446585 2.288944 -1.134537 -0.709508 -0.524603 0.470521
1.364863 2.674600 -0.468088 0.999740 -0.022700 0.002285
1.446267 3.603642 -1.036762 0.903716 0.272777 0.329985
-0.603142 -4.294130 -2.330364 0.111535 -0.003843 -0.993753
-1.269983 2.669341 -0.288955 -0.998098 0.059478 -0.016206
2.122062 -1.728080 -0.897851 0.996400 0.079787 0.028652
1.385354 3.518436 -0.826528 0.858440 0.201621 0.471625
1.249279 2.033608 -1.632310 0.812839 -0.531033 -0.239369
-1.345217 -4.618805 1.165850 -0.099831 -0.991487 0.083592
2.043577 -4.758970 -0.561936 0.903333 -0.395432 0.166198
-1.476469 3.693299 -1.463889 -0.998943 0.027434 0.036873
2.187946 -2.571486 0.005310 0.991000 0.121606 0.055961
0.189743 -4.911187 0.964365 -0.022843 -0.863573 -0.503706
-0.203623 4.636411 0.604181 -0.229118 0.575667 0.784928
2.127459 -4.453775 -2.045320 0.585830 -0.062189 -0.808045
-0.838961 2.401592 1.721682 -0.814187 -0.074280 0.575832
-1.819563 -0.298957 -0.284486 -0.999209 -0.029237 -0.026948
-1.172892 4.409039 -0.189081 -0.934562 0.309869 0.174855
1.273630 0.741042 0.186109 0.993936 0.099946 -0.045845
-1.221428 1.544977 -0.902271 -0.991334 -0.126035 -0.037050
0.572445 -2.965092 2.303614 0.018199 -0.170595 0.985173
-1.359075 -4.835412 -0.736743 -0.277280 -0.872284 -0.402786
-0.408447 4.920495 -0.290636 0.093439 0.995303 -0.025339
1.735121 -3.199878 -1.539410 0.430352 -0.057615 -0.900820
1.727152 0.400946 0.255439 0.188125 0.945013 0.267508
-1.069143 -0.675072 -2.063375 0.023170 -0.149756 -0.988451
1.600663 0.428054 0.285322 0.209014 0.958252 0.195107
2.025760 -4.011795 -0.054021 0.898703 -0.438544 0.003318
1.888129 -0.968284 -0.394960 0.874637 0.066032 0.480261
-1.680173 -3.728529 1.374359 -0.872168 -0.263936 0.411899
2.021364 0.327929 -1.355911 0.981453 0.187716 0.038908
-2.063585 -0.760346 -1.646769 -0.982553 -0.166250 -0.083372
-1.191613 0.881795 -1.102041 -0.818427 0.523393 0.237143
-2.100924 -2.134508 -1.761454 -0.809206 -0.079406 -0.582135
1.339991 1.742471 -0.037923 0.996000 -0.068247 -0.057668
-1.344770 -4.034218 1.782101 -0.726310 -0.209226 0.654750
-0.751985 5.094821 -1.829368 -0.111283 0.378629 -0.918834
-0.600278 -3.832137 -2.219573 0.108375 0.398859 -0.910586
-1.240321 3.990924 -1.056977 -0.994767 0.017051 -0.100735
-2.032511 -4.492374 -1.917788 -0.784662 0.214835 -0.581508
-0.962151 4.439836 -1.338358 -0.996776 0.073583 -0.032000
0.789896 -3.613408 2.167404 0.821919 -0.101201 0.560543
-1.241180 3.914829 -1.036400 -0.995208 -0.027624 -0.093800
-1.082374 1.443018 -1.769841 -0.923314 -0.039997 -0.381958
2.038624 -0.503342 -1.239501 0.995846 -0.000510 -0.091051
-1.566889 -0.369308 0.825211 -0.914026 -0.002840 0.405646
-0.364844 -3.894937 2.285058 -0.491636 -0.051982 0.869248
1.461000 0.222170 -1.972549 0.162534 -0.009315 -0.986659
-2.162969 -4.424710 -0.116232 -0.969168 -0.086326 0.230785
-1.972576 -0.060732 -0.875212 -0.989198 0.087579 0.117542
-1.034022 -4.826083 1.146247 -0.115413 -0.973526 0.197300
0.748414 -4.823878 -0.046472 0.113047 -0.762071 -0.637548
1.549441 0.676187 -0.704441 0.197336 0.968281 0.153266
-0.122028 -4.751914 -0.432343 0.328193 -0.943748 -0.040377
-1.180231 -4.917911 -1.612450 -0.052974 -0.994643 0.088759
1.556133 -4.867589 -0.269865 0.279732 -0.953041 0.116029
1.358444 -1.595491 -1.941120 0.225631 -0.220281 -0.948982
1.390302 0.581053 -0.109619 0.241958 0.950147 0.196665
-1.333707 2.092377 1.489728 -0.767181 0.337344 0.545557
-0.614556 1.130507 2.231085 -0.412111 0.065617 0.908768
1.619260 -2.254351 -1.826780 0.168017 -0.103213 -0.980366
1.370243 0.319007 1.049355 0.157023 0.960173 0.231110
-1.048078 4.386320 -1.855998 -0.597105 0.000680 -0.802163
1.330106 1.605476 0.034395 0.999560 -0.011120 0.027484
-2.122945 -2.235184 -0.593822 -0.955839 -0.026427 0.292700
-1.710257 -1.465372 0.857869 -0.936001 0.208745 0.283422
-1.852046 -1.025210 -2.007276 -0.230835 0.000883 -0.972992
0.598772 3.325886 -1.943591 0.049713 -0.117191 -0.991864
1.074871 -4.812688 -0.007574 -0.130717 -0.928894 -0.346510
1.837337 -1.883806 0.891938 0.959319 0.069064 0.273747
1.149251 4.840846 -1.556168 0.824260 0.487816 -0.287456
1.384449 3.439518 -0.201234 0.994096 -0.027939 -0.104846
1.124255 3.805796 -1.868417 0.139032 -0.075864 -0.987378
-0.974259 3.851735 0.198482 -0.208220 -0.541505 0.814504
0.480180 0.922335 2.304790 0.170584 -0.414643 0.893853
-2.041957 -0.515263 -1.344541 -0.998282 0.054070 0.022556
-2.044355 -2.870746 0.559186 -0.961875 0.002755 0.273475
1.881627 0.343680 -0.375671 0.988976 0.130195 -0.070535
0.250619 2.864923 2.227816 0.216821 -0.114756 0.969443
-2.035167 -4.730565 -0.126732 -0.973614 -0.148203 0.173527
-1.254077 3.345964 -0.072117 -0.994097 0.024320 0.105733
-1.265676 -2.806827 1.884143 -0.701632 -0.054959 0.710416
-1.828892 -0.896983 -0.177696 -0.995249 0.093547 -0.027005
-1.367379 -4.846274 0.230676 0.306235 -0.951909 0.009495
-1.939628 0.173346 -1.922606 -0.726801 0.040841 -0.685633
0.380770 0.956058 -2.002654 0.036788 -0.123891 -0.991614
0.351258 -1.957195 -1.996046 -0.054657 -0.224174 -0.973015
-1.039244 -2.099813 -1.977277 -0.104294 -0.164134 -0.980909
0.825521 0.349923 1.482304 0.343602 -0.590299 0.730400
1.297465 -4.884367 -2.178755 0.007853 -0.981291 -0.192371
-1.168585 0.947295 -0.477698 -0.996938 -0.058960 0.051359
-0.751021 3.088859 0.861627 -0.244207 0.667900 0.703045
1.894950 -1.866558 0.442750 0.999572 0.023965 -0.016771
0.011982 0.038536 1.643803 -0.175361 0.258759 0.949890
1.386282 2.125201 -1.248339 0.655757 -0.753029 -0.054132
0.205189 -2.510610 -1.927338 0.064756 -0.150103 -0.986547
-0.176014 3.073262 1.934813 -0.442303 0.812810 0.379089
1.464972 -4.777810 1.168091 0.802743 -0.389182 0.451819
0.695615 0.400948 1.596590 0.400526 -0.672416 0.622444
2.249504 -3.037484 -0.222707 0.981532 0.190010 0.022148
-1.152655 4.805270 -1.474115 -0.970689 0.224618 -0.085497
-1.574440 0.566409 -0.537080 -0.374785 0.911850 0.167527
1.319421 1.517512 1.236911 0.997663 -0.060601 -0.031550
1.375114 -4.891233 -1.084388 0.157030 -0.986942 -0.035886
-1.517316 2.210993 -0.556072 -0.999490 -0.028791 0.013790
-1.238882 -2.192689 -1.963109 0.025309 -0.025961 -0.999343
1.792496 0.261533 -1.967628 -0.006567 0.072915 -0.997317
0.944002 0.378641 1.410920 0.668607 -0.527515 0.524111
-1.830620 -0.850842 -0.101166 -0.993931 -0.107722 -0.022321
1.766378 -1.684232 1.147867 0.962214 -0.095404 0.255035
1.259219 0.975369 0.568231 0.996152 -0.021048 0.085080
-1.831001 -1.593887 -0.210550 -0.991269 0.007244 -0.131657
-1.099920 0.260491 -2.071306 0.004775 0.056701 -0.998380
0.660225 -4.272898 -2.283431 0.171514 0.381201 -0.908443
2.103488 -3.951301 -1.424752 0.961485 0.157363 -0.225350
-1.154227 -4.191105 -2.259460 -0.329122 0.370815 -0.868433
-0.583307 -4.727092 0.394440 0.102980 -0.873494 0.475818
0.816000 -4.690079 -2.304899 0.145685 -0.065015 -0.987192
-1.597289 -1.809926 1.253334 -0.857719 -0.205089 0.471441
-0.908461 3.489492 -1.905444 -0.091219 0.100894 -0.990706
-1.271398 2.404684 -0.891504 -0.920514 0.012668 0.390504
-0.919305 -4.833569 0.708599 -0.051610 -0.965109 0.256713
-1.027071 0.461643 0.870697 -0.898364 -0.329608 0.290344
-1.779102 -4.896122 -0.050464 0.080929 -0.991718 -0.099729
0.057304 2.459759 -1.989921 0.239495 -0.197569 -0.950583
0.985225 4.134952 -1.904037 0.072238 -0.171262 -0.982574
1.731012 -2.338844 1.385792 0.948017 -0.150897 0.280167
-0.740006 0.510400 1.571744 -0.560212 -0.637202 0.529278
-1.100407 4.442457 0.286891 -0.856240 0.383945 0.345600
1.549293 -2.857033 -1.689954 0.174838 -0.336607 -0.925271
2.245067 -3.528557 -0.351636 0.983422 -0.181200 -0.006855
-2.010406 -0.438129 -1.907756 -0.883056 0.001950 -0.469264
1.338846 1.757526 -0.648534 0.994825 -0.101570 0.002704
-1.596768 0.250953 0.501364 -0.339824 0.897491 0.281121
-0.791947 -0.760967 -2.064747 0.002741 -0.017602 -0.999841
-0.308299 2.132556 1.798303 -0.110665 0.685041 0.720050
-1.153293 -4.843333 0.824123 0.024003 -0.997402 0.067913
-1.050166 2.361644 -1.944571 -0.045604 0.048754 -0.997769
0.693284 -4.841230 1.691409 0.043790 -0.991636 0.121410
1.483444 -3.877270 -2.015896 0.305217 0.093247 -0.947707
-1.077083 -1.831466 -1.997101 0.038478 -0.154470 -0.987248
-1.622517 -4.920913 -1.678910 -0.028364 -0.973570 0.226620
-0.630773 -0.988026 -2.056546 -0.162784 -0.002773 -0.986658
-0.556723 -3.505839 2.225636 0.192555 -0.197108 0.961286
1.177648 2.400239 -1.654228 0.161156 -0.103135 -0.981525
-1.012874 4.875578 -1.697762 -0.396130 0.874469 -0.279972
-1.250666 2.976794 -0.795729 -0.998868 0.016043 -0.044780
1.828368 -2.322787 0.952900 0.978036 0.025019 0.206930
0.178220 0.474378 -2.034529 0.079035 0.010574 -0.996816
1.309233 3.658441 0.100918 0.837323 0.159868 0.522812
0.552218 -4.679955 0.548088 -0.232435 -0.937149 -0.260241
-1.487275 3.076097 -1.275345 -0.951106 -0.298330 -0.079982
-0.530438 -3.976399 -2.342941 -0.003112 0.262798 -0.964846
-0.438468 -4.516299 2.124886 -0.731306 -0.317039 0.603886
1.015920 -1.757769 -1.979770 0.156885 -0.108518 -0.981637
-0.177809 -0.788527 1.856064 -0.085574 0.286639 0.954209
-1.997307 -4.136578 0.412752 -0.858302 -0.448729 0.248917
-0.105239 -0.179146 1.715034 0.188773 -0.012713 0.981938
-0.466612 -4.137617 -2.301483 0.023681 0.204587 -0.978562
1.309777 1.655176 1.715667 0.962093 -0.011014 0.272499
-1.093276 -4.691639 -0.695929 -0.338820 -0.477803 0.810497
-1.973889 -3.664166 -1.527721 -0.971962 0.192995 -0.134322
1.495662 2.446668 -1.027369 0.594325 -0.093432 0.798779
-1.808179 -0.409714 0.076040 -0.984507 0.149020 0.092406
1.531130 -0.940719 -1.953205 0.045141 -0.175973 -0.983360
-0.038585 2.656096 2.163257 -0.080502 -0.470053 0.878959
2.069148 -1.062276 -0.825074 0.998802 0.043660 0.022101
-1.806004 -1.758766 -1.976031 -0.256809 -0.148666 -0.954960
-0.461377 3.325942 0.555284 -0.249184 0.694580 0.674882
-1.058279 -1.333308 1.704551 -0.598665 0.238545 0.764654
-0.004784 -1.399035 -2.029570 0.041825 -0.256295 -0.965693
1.497813 -3.379174 -1.779248 0.465084 0.356818 -0.810172
1.881781 -2.229107 0.372029 0.999096 0.039110 0.016681
-1.505412 3.023782 -1.789004 -0.874783 -0.384918 -0.294266
-2.345030 -2.888632 -0.531861 -0.993543 0.104678 0.043753
-1.180173 -4.310586 1.766669 -0.609685 -0.480355 0.630511
1.253283 -0.027002 -2.058709 0.039068 0.049385 -0.998015
1.365931 2.300574 -0.317272 0.992551 0.120598 -0.017284
-0.605654 -4.841976 -0.489000 -0.036222 -0.971109 0.235871
-1.819388 -0.247607 -2.032816 -0.317777 -0.072471 -0.945392
-1.662733 0.447998 -0.301750 -0.489012 0.841125 0.231034
1.449320 -0.583674 -1.969497 0.047860 -0.079905 -0.995653
0.542404 4.457200 -1.930988 0.176924 0.217473 -0.959898
-1.804884 -4.273887 0.898785 -0.869881 -0.411934 0.271326
-0.034567 -4.841168 -1.600584 -0.007100 -0.990966 0.133926
1.877317 -0.985039 0.398914 0.998644 0.006981 0.051581
0.852493 0.767594 2.267038 0.345378 -0.645885 0.680843
-0.962810 -4.872841 -0.064321 -0.050452 -0.980490 0.189982
-2.244918 -4.079660 0.827191 -0.922338 0.077476 0.378538
1.168734 4.731798 -0.194878 0.934349 0.234485 0.268344
-0.177425 -1.295779 -2.076138 0.014137 -0.161483 -0.986774
2.041063 -0.460158 -1.096323 0.998070 0.033610 0.052222
2.129744 -3.836956 0.023983 0.891940 -0.451191 0.029480
-0.818031 -4.908191 -0.363090 -0.000844 -0.762262 -0.647268
-0.556285 2.721493 1.946287 -0.497939 0.785481 0.367528
-0.181486 -3.618410 -2.152356 -0.079067 0.161415 -0.983714
-1.813667 -2.541441 0.959134 -0.491539 0.684444 0.538448
2.257667 -3.102949 -0.276281 0.998821 0.035952 0.032618
-1.898100 -0.064137 -1.649983 -0.993759 0.001114 -0.111542
-1.783644 0.050094 0.079966 -0.969899 0.067794 0.233879
-0.800701 4.934103 -0.869481 0.015257 0.997041 -0.075340
1.630255 0.188628 0.872249 0.852001 0.134410 0.505993
-1.827867 -0.882804 0.242669 -0.997599 0.019650 0.066414
-2.182961 -2.602296 -1.554791 -0.975750 -0.016807 -0.218240
2.358486 -2.433554 -1.145688 0.992478 0.122321 -0.005027
-1.849010 0.295767 -0.726283 -0.704251 0.175627 0.687885
1.073840 2.255233 1.640728 0.765262 0.100017 0.635901
-1.204191 4.074474 -0.042743 -0.972662 0.013980 0.231805
-0.549581 -1.354708 1.961867 -0.274365 0.117340 0.954440
-1.693094 -4.878684 0.250816 0.162913 -0.985599 0.045328
-0.200194 1.206738 -2.030174 -0.052484 0.015874 -0.998496
-0.254111 -1.145723 -2.074175 0.014137 -0.161483 -0.986774
-0.554800 -4.670565 -2.487709 -0.012382 -0.077782 -0.996893
0.520213 -0.544010 1.779832 0.175780 0.364274 0.914553
-0.135056 -4.810687 -0.711237 0.023378 -0.959438 -0.280947
-1.590381 -0.837782 0.907393 -0.885489 0.176075 0.430007
-0.109477 -0.773086 1.798433 -0.095744 0.446601 0.889596
-1.210748 -2.965834 1.938051 -0.577283 0.340415 0.742201
0.027959 4.678044 -1.800594 0.067333 0.196200 -0.978249
1.358120 -2.180148 1.887022 0.554003 0.206706 0.806445
-1.317680 -2.591151 -1.895514 0.026731 -0.095812 -0.995040
-0.113931 -0.485611 -2.074317 0.069382 -0.023630 -0.997310
-0.712849 -2.037853 2.128197 -0.409723 0.178782 0.894519
0.060825 -4.109122 2.335353 -0.039738 -0.093834 0.994794
-0.167714 4.964339 -1.645715 -0.097543 0.971953 0.213991
0.630901 -0.185870 -2.029978 0.162758 -0.122705 -0.979006
1.966203 -0.282343 -0.826471 0.995222 0.030208 0.092845
-1.138113 -2.537377 1.954004 -0.605679 0.191235 0.772387
-1.243547 0.242299 1.005584 -0.476260 0.702275 0.529137
1.317290 3.920922 -0.850385 0.992459 0.097667 -0.074066
1.324913 1.676188 -0.491393 0.998843 -0.045681 -0.015056
2.085332 -1.922969 -1.553092 0.981129 0.017466 -0.192562
1.965167 -3.716595 1.031018 0.911122 -0.032745 0.410833
1.567266 -1.093998 -1.929157 0.296565 -0.068892 -0.952525
-2.080941 -4.065958 -1.413878 -0.989299 0.119768 -0.083326
1.499822 -1.403472 -1.922843 0.163372 -0.073112 -0.983852
-0.375390 3.955468 0.438136 -0.260742 -0.544156 0.797438
-0.292574 -4.882019 -0.973031 0.077377 -0.986298 -0.145701
1.922642 -4.000529 -1.811303 0.528732 0.235655 -0.815420
1.919410 -3.574180 -1.472380 0.858979 0.384249 -0.338389
2.223756 -2.919912 -0.979650 0.997438 0.016944 -0.069503
-1.833239 -0.754771 -0.126151 -0.992905 0.113376 -0.035866
-0.170000 -1.583860 2.068548 0.290391 0.598670 0.746504
-1.113820 4.891868 -0.956914 -0.734254 0.678847 0.006173
1.770548 -3.380842 1.755411 0.723500 -0.082162 0.685417
2.042513 -0.250642 -0.887068 0.997019 -0.077142 -0.001552
-2.129890 -2.723083 -0.430605 -0.695409 -0.001838 0.718612
1.078149 -0.883101 -2.005402 0.025577 0.036986 -0.998988
0.425092 4.935088 -1.761554 -0.122778 0.773884 -0.621312
-2.164861 -2.124575 -1.478655 -0.995032 0.002400 -0.099526
-2.150315 -2.972449 -1.698518 -0.557364 -0.246148 -0.792942
-2.038834 -1.419204 -0.583566 -0.922861 0.145384 0.356637
-1.127249 4.785899 -0.669581 -0.950106 0.303069 0.073809
1.868504 -4.009095 0.896462 0.768862 -0.596152 0.231201
0.626024 -2.841119 2.303673 -0.022404 0.018310 0.999581
1.317920 4.172403 -0.424209 0.999139 -0.016437 0.038091
1.822055 -0.450069 0.627687 0.929710 0.163970 0.329778
-0.434001 1.342736 -2.031316 -0.083268 0.008706 -0.996489
-1.766436 -0.592896 0.408014 -0.964354 0.107331 0.241872
-1.314160 -0.262948 -2.059555 -0.049891 -0.020220 -0.998550
2.073663 -4.153160 -0.331514 0.969420 0.157066 0.188559
-0.412785 2.810419 1.957855 -0.735270 0.658481 0.160564
1.284603 -0.396637 1.427732 0.588425 0.232245 0.774479
0.348176 -2.575076 2.346609 -0.011313 -0.075637 0.997071
-0.758592 -2.903909 -1.951300 0.018256 0.303954 -0.952512
1.326040 1.514500 -0.122454 0.998971 -0.040630 -0.020129
-1.027673 4.533540 -0.800973 -0.990053 0.136970 -0.032175
-0.919186 0.613490 1.379451 -0.809074 -0.515394 0.282431
-1.022396 -2.040368 -1.824787 0.054524 -0.126738 -0.990437
1.389987 2.632532 -0.048494 0.995537 0.005103 -0.094229
-1.860649 -0.699459 -2.122690 -0.305973 0.025371 -0.951702
0.945119 -0.756066 -2.012358 0.055216 -0.067590 -0.996184
-1.762638 -4.554682 1.032153 -0.828538 0.000748 0.559932
-1.106198 -4.923501 -0.677745 0.190578 -0.936522 0.294289
0.536695 4.171914 0.551261 0.266312 -0.554769 0.788232
-0.814369 2.562029 1.815444 -0.951203 0.257807 0.169553
-1.158366 1.331706 -1.527039 -0.990776 -0.027201 -0.132755
1.438020 -3.903939 1.827639 0.739520 -0.259764 0.620993
1.750678 3.450739 -1.237479 0.977869 0.135563 0.159357
0.685515 -4.353043 -2.289447 0.130567 0.123380 -0.983732
-2.143388 -4.593235 -0.995045 -0.999320 -0.019313 0.031402
-1.847642 -1.292999 0.249475 -0.992226 0.024229 0.122065
-0.665578 3.772916 0.256561 -0.305011 0.011947 0.952274
-0.807252 -0.080473 1.507918 -0.361467 0.381090 0.850948
0.964663 -3.352850 2.171468 -0.299998 -0.470860 0.829634
1.256791 -4.775266 -2.252508 -0.000263 -0.112934 -0.993603
-1.277542 4.326595 -1.861390 -0.094520 -0.091661 -0.991294
-0.094723 -4.841912 -0.560488 -0.115791 -0.961649 0.248645
-1.948307 -2.877883 0.869897 -0.915313 -0.025215 0.401954
2.242126 -3.198042 -0.127740 0.975112 -0.103218 0.196219
-0.832492 2.514358 1.366956 -0.785848 0.612515 0.085254
1.271027 0.888103 -0.381275 0.998693 0.042421 -0.028514
2.100285 -3.788418 0.470264 0.953409 -0.233582 0.190923
1.350736 0.573534 0.009263 0.578727 0.812024 0.075450
-1.104160 1.289721 -1.728701 -0.919404 -0.037824 -0.391491
-1.952919 0.103690 -1.959307 -0.732302 0.027525 -0.680424
0.673802 -3.418743 2.285534 0.564157 0.036168 0.824875
0.362912 -4.867467 -1.603295 0.167789 -0.784263 0.597310
-1.588942 -4.857068 0.827304 -0.035881 -0.981483 -0.188161
1.797289 -2.660702 -1.663630 0.365150 0.018781 -0.930759
1.286021 1.545124 1.819919 0.917842 0.119158 0.378640
-1.148398 2.965747 0.753885 -0.586098 0.561310 0.584312
1.209397 1.751479 -0.155768 0.996276 -0.080385 0.031190
-1.149377 1.281977 -1.583939 -0.990776 -0.027201 -0.132755
1.236279 1.683552 -1.532519 0.987234 0.000428 -0.159279
0.661754 -3.321158 -2.037258 0.262584 0.215933 -0.940437
-1.042150 -2.530205 2.271304 -0.564870 0.235228 0.790942
1.618647 -4.862121 -0.711214 -0.092566 -0.990270 0.103909
-0.863268 -4.898579 -0.919860 0.139889 -0.973505 0.180882
0.418277 -4.623057 2.257738 0.130842 -0.299958 0.944937
0.393253 -0.931684 1.934561 0.234559 -0.053726 0.970616
-1.950857 -4.896297 -0.453906 -0.164712 -0.985160 0.048261
-2.129548 -1.598849 -1.719824 -0.986005 0.106609 -0.128175
0.392494 -4.834857 0.925086 0.049631 -0.845422 -0.531788
1.284900 -4.841275 -1.573920 0.036188 -0.999323 -0.006658
0.120895 -4.829580 -0.184972 -0.248630 -0.900391 -0.357042
1.271441 -1.414151 1.769768 0.578124 0.217654 0.786384
-1.929617 -2.215899 -0.374377 -0.505392 0.104300 0.856563
-1.241675 4.289800 -1.077283 -0.992972 0.117846 -0.010860
1.521931 -0.126244 1.121803 0.682941 0.151145 0.714666
