ply
format ascii 1.0
element vertex 839
property float x
property float y
property float z
property float nx
property float ny
property float nz
end_header
-1.486355 -4.737649 -2.262605 -0.279374 -0.210962 -0.936721
-0.375974 -4.847117 1.644729 -0.010757 -0.999240 0.037471
0.107329 -2.608537 -1.920226 0.173714 -0.054521 -0.983286
0.296837 -2.356695 2.309224 0.099784 0.275641 0.956068
0.400175 5.149257 0.149497 -0.175135 0.983043 -0.054350
0.689787 2.921648 1.108057 -0.057263 0.782483 0.620034
-0.984824 -4.286506 2.008854 -0.282773 -0.497082 0.820334
-2.055638 -0.659328 -1.358016 -0.999610 -0.021228 -0.018119
-1.100613 3.159234 -1.914697 -0.046908 -0.017264 -0.998750
-1.296303 -4.859169 1.139895 0.123566 -0.991616 -0.037803
2.291450 -4.406552 -1.262589 0.989950 -0.106022 0.093580
0.544254 -1.275837 -2.025842 0.190561 0.042770 -0.980743
-2.391274 -4.341411 -1.384771 -0.995534 -0.011137 -0.093744
-1.220022 1.568490 -0.920951 -0.997023 0.075087 -0.017508
2.165060 -4.191444 -1.343542 0.950290 0.248958 -0.186998
0.229054 4.955490 -0.213024 0.012979 0.999534 0.027636
-1.027871 1.138517 1.470087 -0.928907 -0.326463 0.174794
-1.131138 0.993950 1.221182 -0.958466 -0.264645 0.106331
0.709346 4.589736 0.371486 0.483916 0.648583 0.587508
-0.301396 4.076069 -1.930932 -0.004060 -0.018880 -0.999813
-1.547030 0.500998 -0.241032 -0.246019 0.932433 0.264656
-0.932534 -4.402055 -2.330725 -0.067260 0.129645 -0.989277
0.174535 -4.832668 1.452949 -0.037194 -0.999296 0.004886
1.346034 3.484268 -0.877423 0.993120 0.050968 -0.105426
1.832462 -0.736440 0.609020 0.969828 0.052611 0.238046
-0.997048 3.766949 0.167097 -0.265603 -0.256542 0.929323
-1.212141 1.340166 -1.628818 -0.973705 -0.085344 -0.211220
1.284261 1.100786 -0.338103 0.996821 -0.070954 -0.036237
-0.764697 0.345200 1.339840 -0.641537 -0.455615 0.617127
1.313616 -4.797985 -0.039007 -0.243761 -0.967640 0.065224
1.301002 -2.801305 -1.737325 0.203081 -0.248649 -0.947065
1.307768 3.999915 -0.898860 0.996894 -0.014812 -0.077344
-0.700713 -2.453804 -2.159560 -0.035177 -0.129188 -0.990996
-1.261865 0.626251 -0.399976 -0.418587 0.890480 0.178410
0.199121 3.161543 1.991712 0.323121 0.854746 0.406204
-2.136333 -1.677117 -1.644524 -0.990569 0.122836 -0.060703
2.036449 -0.614189 -1.098878 0.996876 0.065002 0.044870
0.878056 -2.817838 -1.820223 0.083254 0.041035 -0.995683
1.209316 2.541211 1.389707 0.632739 0.424997 0.647316
-2.191641 -2.859026 -0.303458 -0.979837 0.149772 0.132245
0.256625 -4.915762 -1.862673 -0.026353 -0.996548 0.078728
0.551694 4.362875 0.635593 0.359091 -0.265828 0.894645
-0.642079 -1.612728 -2.040848 0.028234 -0.106254 -0.993938
2.153852 -3.549751 -1.059480 0.814266 -0.361544 -0.454155
1.072672 -2.120086 -1.923291 0.031327 -0.251426 -0.967369
1.003050 -3.228242 2.211394 0.253246 -0.473839 0.843412
-1.703673 -4.873978 0.618350 -0.016531 -0.992930 0.117541
1.153160 1.778074 -1.759298 0.811235 -0.022319 -0.584294
1.486303 -4.865602 -0.842333 0.149465 -0.988380 -0.027663
1.305918 1.353729 0.753651 0.993903 -0.108468 0.019786
-2.201506 -3.036812 -0.123391 -0.989662 0.041180 0.137377
-1.006055 0.700027 1.204249 -0.892871 -0.384641 0.234164
-1.675813 -3.353909 1.400613 -0.885303 -0.094604 0.455290
0.146892 3.698075 0.884494 0.123151 0.844727 0.520836
-0.843428 -4.693978 1.923638 -0.452776 -0.205576 0.867601
1.374020 2.140653 0.627177 0.997705 -0.066615 0.012138
-1.992468 -4.224416 0.244079 -0.982890 -0.119672 0.140019
1.989540 -3.365711 0.987169 0.909770 0.122485 0.396631
0.631094 -1.520260 -1.851859 0.068950 0.241816 -0.967869
-0.737197 4.915877 -0.575678 0.021129 0.993580 0.111138
-0.829438 -1.370753 -2.099650 -0.049906 -0.078871 -0.995635
2.090743 -1.404531 -1.130934 0.972089 0.226544 -0.060992
-2.014202 -3.749530 0.650967 -0.879966 -0.110846 0.461924
-1.411151 -4.860491 0.217124 0.306235 -0.951909 0.009495
-1.255271 2.883135 -0.738721 -0.998372 -0.056894 -0.003993
2.011195 0.509747 -1.313451 0.996693 0.072223 -0.037233
1.618077 -4.889523 -1.394004 0.064944 -0.995485 -0.069217
-1.107684 -3.939240 -2.197095 -0.204820 0.365579 -0.907965
-1.097452 1.486501 -1.737947 -0.923314 -0.039997 -0.381958
-1.777035 -0.073456 0.205427 -0.951037 0.257842 0.170430
2.119074 0.670499 -1.398928 0.517626 0.850868 0.089930
0.152309 -3.907991 2.354190 0.074322 -0.149067 0.986030
0.015221 -0.368159 1.752843 0.092045 -0.071194 0.993207
1.073772 -3.824501 -2.118017 0.135806 0.353686 -0.925453
1.717457 -4.849040 -0.211742 -0.132569 -0.988835 0.068056
2.159529 -4.313418 -0.903310 0.987173 0.024596 0.157748
1.756080 -4.754300 0.538222 0.854911 -0.469089 0.221547
1.780749 -1.663519 1.101396 0.962214 -0.095404 0.255035
1.492952 2.893115 -1.526523 0.965586 -0.008092 0.259957
1.031576 2.975630 0.943576 0.358506 0.638846 0.680698
-1.747936 0.584372 -1.738769 -0.307946 0.943306 0.123870
2.056802 -0.895054 -0.895122 0.983179 0.158528 -0.090709
-1.207429 1.283066 -0.425740 -0.991982 -0.099207 -0.078287
0.518143 -4.884216 0.117361 -0.239666 -0.916128 -0.321357
1.915591 -4.462215 0.314449 0.937668 -0.195659 0.287223
2.006513 -1.637007 -0.313974 0.663708 0.170634 0.728269
-0.884685 4.623106 -1.868613 -0.105322 0.140535 -0.984458
0.300748 2.598307 -1.974803 -0.000377 -0.047443 -0.998874
1.976311 -4.387214 -1.174780 0.989950 -0.106022 0.093580
-0.650672 4.902864 0.033959 0.069437 0.997579 0.003812
1.503758 0.851218 -1.397109 0.248346 0.939338 0.236576
1.510654 3.420835 -1.516657 0.933165 -0.311536 -0.179300
-2.009249 -2.734689 -1.727557 -0.562023 -0.230060 -0.794483
-1.587913 -4.925214 -1.429169 0.095294 -0.993688 0.059184
-0.008997 -4.827460 0.134678 -0.046777 -0.919286 -0.390800
1.268890 4.376320 -1.187806 0.995956 0.089212 0.010670
-1.198265 0.531174 -0.274181 -0.562787 0.807622 0.176120
0.534195 3.262606 -1.948910 -0.009425 0.117274 -0.993055
-2.020720 -3.786928 -1.592330 -0.943590 -0.080803 -0.321105
-0.232759 -4.845751 1.314324 -0.156078 -0.983889 -0.087193
2.261321 -3.127957 -0.158040 0.999995 -0.002612 -0.001872
1.945193 0.053124 -1.861444 0.934079 0.024815 -0.356203
-1.735472 -0.513311 0.473292 -0.940418 0.131004 0.313772
-0.035884 4.312083 0.702800 -0.146442 -0.458077 0.876767
0.953579 3.052445 1.160456 0.355066 0.654203 0.667792
0.314665 -2.344180 -1.946722 0.067874 -0.255488 -0.964427
0.701481 -3.164757 2.187752 0.092570 -0.390737 0.915836
0.662017 4.964320 -0.652529 -0.086418 0.942915 0.321625
-1.990858 -0.381507 0.501867 -0.916899 -0.053175 0.395562
-1.492311 2.225352 -1.531247 -0.737358 -0.674642 0.034070
0.029627 3.181151 1.347762 -0.041417 0.892052 0.450030
0.349547 1.453173 -1.993984 0.094049 0.015805 -0.995442
1.344087 2.013456 -0.604495 0.992006 -0.101456 -0.075037
-1.173055 2.606922 1.038447 -0.928004 0.149135 0.341419
-0.068512 2.823049 -1.848511 -0.007107 0.000377 -0.999975
1.006727 -4.742799 -2.275029 0.100778 -0.123346 -0.987233
2.219657 -2.725566 -0.940289 0.991674 0.126290 -0.025182
1.812792 -4.417168 -2.062221 0.355957 0.358855 -0.862855
0.498525 0.409710 1.700749 0.279879 -0.707250 0.649204
0.930052 2.945837 1.019196 0.268569 0.724255 0.635079
-1.813066 -0.226628 -0.026652 -0.986816 -0.028656 0.159287
1.264146 4.411484 -1.168262 0.978506 0.199733 0.051312
-2.041424 -4.852527 -0.638757 -0.491330 -0.867911 0.072971
-0.080816 -4.839947 0.069255 0.057816 -0.985996 0.156427
-0.225679 1.578657 2.250531 -0.230947 0.214092 0.949120
1.101638 -4.875916 0.792746 0.082208 -0.978636 0.188452
-0.829944 -4.886644 -1.717222 0.413392 -0.747797 0.519525
1.277147 0.879382 0.202394 0.985458 -0.169875 0.003821
-0.137734 -4.846379 1.428434 -0.019597 -0.999696 -0.014974
-0.827680 0.516100 -2.067917 0.051191 0.067168 -0.996428
-1.028392 0.312940 1.183639 -0.721235 0.630472 0.286922
-0.459062 -4.859386 -0.103658 0.117930 -0.750666 0.650072
0.199526 -4.136512 2.340013 -0.020811 -0.012272 0.999708
-1.393026 3.165194 -1.063803 -0.457739 0.104662 0.882905
0.863076 0.907159 -1.745714 -0.035379 -0.033963 -0.998797
0.265448 2.650008 2.161818 0.058923 -0.440370 0.895881
-0.991659 -4.814325 -0.605364 0.629297 -0.708801 0.318726
-1.374087 -4.853853 0.139405 0.386085 -0.909934 0.151519
1.492965 -4.233692 -2.127580 0.327399 0.214972 -0.920107
-1.211832 4.490201 -1.112565 -0.996543 0.074206 0.037343
1.377163 0.675472 -0.559438 0.222863 0.952304 0.208446
-1.748595 0.109158 -2.044709 -0.072599 0.023375 -0.997087
-1.111416 4.870576 -0.607532 -0.551557 0.806392 0.213347
2.152652 -2.474452 0.060284 0.948435 0.207080 0.239979
-1.153751 4.364827 -1.785361 -0.681022 0.443754 -0.582487
-0.873822 2.662650 1.245439 -0.447327 0.648400 0.616016
0.329918 3.834586 -1.946357 0.024904 -0.046737 -0.998597
-1.105480 0.860204 1.061126 -0.926309 -0.311409 0.212077
0.986475 4.231300 0.475856 0.312039 -0.320243 0.894470
-1.916950 -2.786641 0.916077 -0.873267 0.202392 0.443218
-1.175338 1.258226 1.203991 -0.979088 -0.181104 0.092667
-2.143031 -3.275166 0.234323 -0.969106 0.055421 0.240337
1.774686 -3.927435 1.357439 0.842134 -0.428719 0.327124
-0.943981 -4.777840 1.825077 -0.388271 -0.607858 0.692643
1.861011 -0.542086 -0.383273 0.922450 0.070037 0.379711
-1.250938 3.386313 -0.051802 -0.994097 0.024320 0.105733
1.193142 1.978909 -1.722542 0.722623 0.058154 -0.688792
-1.734720 -2.378131 -1.905324 -0.236193 -0.291535 -0.926941
1.864611 0.641148 -0.896702 0.267261 0.942433 0.200977
-1.999013 -4.920920 -1.188965 -0.275582 -0.950309 0.144802
-0.511160 -4.817745 -0.645468 0.285514 -0.819508 0.496878
1.533199 0.610307 -0.370087 0.194712 0.963253 0.185015
1.080579 4.706509 -0.891511 0.962742 0.266046 -0.048441
-0.173945 -4.189675 -2.305233 0.021347 0.003766 -0.999765
1.351502 -2.188352 2.030338 0.593168 0.199472 0.779976
2.164385 -2.578219 -1.363726 0.959420 -0.014282 -0.281620
1.442160 1.359709 -0.956916 0.998933 -0.045554 -0.007621
-1.076793 -3.627687 2.040201 -0.595198 -0.203957 0.777265
-0.279623 -1.745597 2.117315 -0.048729 0.477309 0.877383
2.041757 -0.307612 -0.887873 0.998535 0.009235 -0.053322
-0.044430 -4.686670 -0.531346 0.080229 -0.587291 0.805389
-0.852494 4.938925 -1.237769 -0.111036 0.950345 0.290715
2.077768 -4.314130 -1.743822 0.841115 0.462299 -0.280722
0.210730 3.366987 1.448633 0.172878 0.863218 0.474307
1.603485 -4.769499 -0.532210 0.060967 -0.996251 0.061379
1.413842 0.305578 -1.976616 0.032396 -0.159834 -0.986612
-1.870671 -2.073509 -0.182710 -0.978218 -0.042450 -0.203195
-1.996997 -0.829014 -0.651513 -0.917595 0.070455 0.391222
1.066431 -1.726515 -2.054729 0.051385 -0.051813 -0.997334
1.754627 -0.807903 -1.907237 0.111431 -0.209393 -0.971462
1.141224 -4.585726 1.883572 0.437637 -0.243812 0.865465
0.957889 -0.475838 1.634970 0.334207 0.450620 0.827797
1.305246 0.173082 -2.124859 0.242216 -0.206673 -0.947955
2.133325 -3.874807 -0.770159 0.971925 -0.224185 0.071427
2.192733 -2.486937 -0.963576 0.988369 0.077242 -0.130999
-1.483912 -3.772928 1.701232 -0.719573 -0.391968 0.573215
1.688204 -2.124734 1.557253 0.944475 -0.242694 0.221510
0.939228 -2.545782 2.218687 0.289796 0.175322 0.940893
-0.127311 3.584043 0.990331 -0.390876 0.811709 0.433986
-0.058510 3.667322 -1.941009 -0.022626 0.109552 -0.993723
-0.144664 4.697677 -2.045978 0.426821 0.023840 -0.904022
0.794115 -4.865013 1.144635 -0.038005 -0.843941 0.535088
-0.715432 0.102589 1.328419 -0.448848 0.418425 0.789592
-0.365064 4.493563 0.650527 -0.250395 0.431778 0.866528
0.216878 4.411511 -1.929130 0.047965 0.124156 -0.991103
-1.545809 -0.666000 -2.042102 -0.065868 0.103552 -0.992441
1.340135 2.906285 0.468890 0.998487 -0.027936 0.047370
-1.625126 0.725612 -1.198355 -0.295200 0.931382 0.213035
0.105567 4.817856 -1.861743 0.164241 0.182123 -0.969462
-0.349448 4.553762 0.621871 -0.289224 0.551584 0.782371
-1.835644 -1.838031 -0.189207 -0.979306 -0.162671 -0.120406
-0.514991 -4.872517 0.091553 0.230735 -0.925512 0.300314
1.629937 -3.027288 1.995956 0.596017 0.028215 0.802476
-0.698571 4.170254 -1.905368 -0.016754 -0.120593 -0.992561
-0.616866 -4.906365 -2.117559 0.049575 -0.986639 0.155198
0.035160 -3.025606 2.280058 -0.092150 0.509785 0.855353
0.279959 4.953920 -0.666760 0.017966 0.996110 0.086266
1.994060 -0.313920 -1.733727 0.976799 -0.025792 -0.212600
-2.147131 -1.713189 -1.331412 -0.986726 0.160533 -0.024511
-1.137067 2.681187 -1.931495 -0.050735 -0.090472 -0.994606
-0.250222 -4.772412 2.177071 -0.193473 -0.514388 0.835448
-0.978067 4.930022 -0.935586 0.092283 0.937608 -0.335225
-0.002578 -1.474562 2.057832 -0.205905 0.420602 0.883571
-0.779001 3.596528 0.355542 -0.323938 0.618538 0.715873
-0.195704 2.402398 -1.979646 0.021181 0.142895 -0.989511
1.194460 -4.801113 -0.122135 0.181460 -0.979061 0.092257
-0.269567 2.960052 1.943392 -0.545682 0.621270 0.562366
-1.226225 4.175344 -0.278568 -0.984809 0.148875 0.089371
-0.856332 4.918583 -0.500935 0.033624 0.965720 -0.257397
0.851555 4.981992 -1.000943 -0.007660 0.989890 -0.141634
1.644403 0.540933 -0.209059 0.266307 0.932844 0.242656
2.064175 -1.364514 -1.382464 0.977400 0.174615 -0.119162
-2.234817 -2.766693 -0.759068 -0.995707 0.091371 0.014771
-0.636615 4.608715 0.423749 -0.496231 0.555231 0.667438
0.476358 4.288147 0.635733 0.171965 -0.439540 0.881608
-0.539597 4.918591 -0.275463 -0.010732 0.991924 0.126376
1.430907 -1.432427 -1.743684 0.207254 -0.044195 -0.977288
0.685646 -3.735233 -2.150116 0.034539 0.189558 -0.981262
1.395801 -4.871408 -0.751594 0.149465 -0.988380 -0.027663
-0.803983 0.220822 -2.075661 0.055630 0.032089 -0.997936
2.161144 -2.521061 0.094786 0.931862 0.348441 0.101106
0.272741 2.565735 -1.975629 0.091875 0.147776 -0.984744
0.633251 -4.898818 -1.468147 -0.000780 -0.999873 0.015924
0.070356 0.761749 -2.038304 0.018006 0.190598 -0.981503
1.871152 -2.404004 0.705067 0.990472 0.027067 0.135028
-2.182235 -2.284826 -1.146148 -0.999321 0.027054 -0.025007
1.722245 -4.562829 0.559953 0.926260 -0.139560 0.350094
0.742358 -4.183122 2.143535 0.932871 -0.138187 0.332651
0.864816 0.804097 2.021171 0.476337 -0.664610 0.575670
-1.050382 4.325087 0.253299 -0.707154 0.543765 0.451943
-1.733784 0.991987 -1.430902 -0.376221 0.895626 0.237300
2.181963 -2.533814 -0.040614 0.932661 0.342719 0.112632
-2.120103 -3.730371 0.127602 -0.955153 -0.039813 0.293423
-0.767475 -3.688118 -2.173060 -0.055166 0.355253 -0.933141
1.972693 -2.720950 0.993660 0.941259 -0.093134 0.324589
-0.284590 -4.873574 -1.025496 0.492018 -0.866452 0.084730
1.429809 0.808656 -0.700295 0.790665 0.602946 0.106326
0.762087 1.015022 -1.990015 0.090601 0.138594 -0.986196
0.880965 -4.798548 0.270080 -0.110145 -0.801542 -0.587706
1.778744 -4.161734 0.830919 0.439399 -0.748321 -0.496935
-1.810478 -0.004856 0.019844 -0.998343 0.033902 0.046502
-2.182591 -2.297154 -0.967687 -0.997483 0.007775 0.070483
-2.141407 -1.818409 -1.755770 -0.987764 0.063074 -0.142634
-1.090218 0.664891 0.799833 -0.974350 -0.143601 0.173268
-0.614481 3.162176 0.825366 -0.172971 0.729920 0.661285
1.357187 -1.226414 -1.951777 0.124254 0.094151 -0.987774
-0.986878 4.929100 -1.386833 -0.039740 0.996411 0.074737
0.636389 -2.238497 2.243754 0.261274 0.427958 0.865210
-1.991490 -0.584787 -1.938084 -0.660186 -0.090377 -0.745645
-2.010718 -4.741776 0.022909 -0.968471 -0.200506 0.147858
1.389436 -2.598903 -1.812278 0.186275 -0.371029 -0.909747
1.939235 -0.267788 -1.873240 0.842035 -0.055244 -0.536586
-0.343218 3.108127 1.070174 -0.845161 0.462472 0.267995
0.561661 2.497978 1.996179 0.268144 -0.383136 0.883915
-0.412056 -4.755627 1.830446 -0.211023 -0.592987 0.777069
0.896104 -3.407348 -2.019391 0.134346 0.363461 -0.921871
0.221758 -4.916145 -2.057524 -0.036766 -0.998030 0.050833
0.420926 4.605061 0.604939 0.330978 0.671444 0.663036
-1.462057 3.366145 -1.608719 -0.998951 -0.045727 -0.002273
0.313103 -4.816927 -0.145208 0.060563 -0.678901 0.731728
1.551575 2.915017 -1.690402 0.983790 0.044089 -0.173819
-0.842264 0.651260 1.631209 -0.706021 -0.608947 0.361549
1.266347 1.614995 -1.382934 0.994708 0.022241 -0.100308
0.842331 -4.500440 -2.294679 0.098402 0.237926 -0.966286
-1.531912 2.612209 -1.852630 -0.999778 0.020899 -0.002651
1.346524 3.420820 -0.902719 0.997295 0.000126 -0.073500
1.788737 -4.603156 0.607018 0.891617 -0.284838 0.351974
1.207538 1.927260 -1.698141 0.871911 -0.051026 -0.486998
1.008170 3.039527 -2.043138 0.066414 0.024675 -0.997487
-2.018360 -1.895727 -1.870892 -0.649191 -0.068435 -0.757541
0.094737 1.439145 -2.008791 0.082393 0.043030 -0.995670
-1.701259 -2.366957 1.075226 -0.954114 -0.157039 0.254962
0.020364 1.733487 -2.001528 0.030726 0.032003 -0.999015
-1.246738 2.644420 0.319049 -0.993599 0.106537 0.037570
-0.961981 4.183220 0.395508 -0.424813 -0.278678 0.861320
-1.178191 4.506525 -1.644208 -0.979311 0.131701 -0.153638
-1.887992 -1.877273 -0.379933 -0.548499 -0.003712 0.836143
-1.799461 -4.697576 0.801060 -0.886085 -0.170590 0.430990
1.907494 -2.449339 0.897491 0.957222 0.193384 0.215243
0.668682 4.336756 -1.920015 0.050963 -0.024571 -0.998398
1.519567 -2.391252 1.924703 0.632660 0.109203 0.766692
0.303173 -4.989827 -1.331905 0.007840 -0.973499 -0.228555
-1.044567 -4.909742 -1.613575 0.089068 -0.979794 0.179083
1.895245 0.163330 -0.137244 0.991870 -0.000312 -0.127255
-0.322250 -4.825061 -1.511653 0.307294 -0.946550 -0.098052
-1.790577 -4.690062 0.822300 -0.886085 -0.170590 0.430990
0.982150 4.973473 -0.875988 -0.004755 0.990385 -0.138260
-2.028713 -4.895423 -1.376987 -0.616710 -0.783769 -0.073308
0.377320 -1.521791 2.145480 0.109604 0.256053 0.960429
2.081215 -4.786787 -1.719185 0.819683 -0.572785 0.006015
-1.614033 -2.453068 -0.281061 -0.893413 -0.007661 0.449171
1.025512 -4.800591 -0.363099 0.263616 -0.905147 -0.333489
1.510262 3.397449 -1.648806 0.987008 -0.158505 0.026304
-0.805655 2.798036 1.138911 -0.295202 0.679069 0.672103
-0.585900 0.221059 -2.078924 -0.078549 -0.013101 -0.996824
1.311604 1.310523 0.436111 0.995346 -0.084761 0.045841
0.992791 -2.497293 -1.734397 0.094315 -0.257396 -0.961692
1.251766 -4.805041 0.080945 -0.029276 -0.952271 -0.303848
1.097633 1.410098 0.686578 0.981517 -0.190303 -0.020225
0.063566 -4.952167 -1.240592 -0.094515 -0.986885 0.130863
1.091219 -4.698689 0.740054 -0.327497 -0.910111 -0.253857
-0.839722 3.372249 0.532153 -0.303368 0.707851 0.637899
0.304842 3.490166 -1.943003 0.007700 0.080246 -0.996745
-0.665676 1.869815 1.964863 -0.414358 0.314336 0.854108
0.941946 0.906666 1.082253 0.974824 -0.204126 0.089730
1.201746 3.431652 -1.906437 0.082873 -0.115029 -0.989899
-0.820382 2.615259 1.645081 -0.918282 0.395368 -0.021029
1.378568 -4.472533 1.488111 0.854140 -0.241692 0.460466
-1.274658 2.121935 0.261831 -0.999569 0.029273 0.002304
1.849050 -0.324173 -0.387540 0.988424 -0.044233 0.145127
0.618898 2.068057 -1.973035 0.159850 0.008242 -0.987107
-0.018743 -2.724779 -1.938159 0.046932 0.067041 -0.996646
0.988441 -4.898645 -1.657306 -0.107876 -0.987572 0.114299
-2.063084 -1.080194 -0.943653 -0.994671 0.019955 0.101153
0.184719 5.085693 -1.739866 0.045872 0.736159 -0.675253
-0.367053 -0.396369 -2.087324 0.010824 0.006636 -0.999919
1.064203 2.408304 1.343225 0.420708 0.440701 0.792961
-1.863977 -3.998518 0.950315 -0.785201 -0.459698 0.414894
-0.309120 4.868812 -1.827923 -0.006313 0.661723 -0.749722
0.994144 -3.419914 -2.008970 0.151266 0.357722 -0.921495
-0.622693 -1.378706 2.204797 -0.431094 0.199274 0.880027
-0.542591 0.643357 -2.058933 -0.014321 0.054395 -0.998417
1.258856 1.118351 1.536484 0.970392 -0.235680 0.052864
0.673123 1.698745 2.131523 0.325872 0.339267 0.882443
-1.319520 -2.704612 -1.874253 -0.099061 -0.231994 -0.967660
1.652035 -3.848106 1.559483 0.832964 0.021604 0.552905
-1.855665 -2.227418 -0.322902 -0.695332 0.006870 0.718656
-2.007835 -3.056341 -1.606057 -0.578056 -0.241220 -0.779528
-0.084393 -2.327782 2.294241 -0.025529 0.193808 0.980707
-1.125409 1.275335 -1.678364 -0.919404 -0.037824 -0.391491
0.423582 2.473433 2.051697 0.213533 -0.388185 0.896502
-1.184402 3.702617 0.057231 -0.831494 0.224846 0.507999
-1.384420 -2.564618 1.745789 -0.659217 0.136699 0.739423
-1.143726 -2.416185 -1.931786 0.035675 -0.177591 -0.983458
0.716179 -4.821480 0.447605 -0.082573 -0.579759 0.810593
0.415474 -4.866058 -0.876941 -0.052010 -0.900051 0.432670
-1.979579 -3.765695 -1.594205 -0.880437 0.243861 -0.406649
1.874109 -0.512088 -0.096788 0.989847 0.087638 -0.111906
-0.965133 -4.658312 0.387504 0.384214 -0.849783 -0.360900
1.338884 -4.851932 -2.222693 0.277942 -0.720981 -0.634771
2.100444 -3.254586 0.645347 0.924127 0.237261 0.299494
1.586446 -2.921200 -1.657816 0.178627 -0.451220 -0.874353
-1.344482 -4.983187 -0.462532 0.198139 -0.853600 -0.481777
1.429497 -3.273207 1.876785 0.708917 -0.180644 0.681765
-1.212737 1.345693 0.267064 -0.992322 -0.123025 0.012702
-0.725271 -4.893660 -0.952333 -0.013317 -0.782510 0.622495
1.529571 -4.523230 1.216762 0.845690 -0.124781 0.518882
1.545115 2.661919 -1.380146 0.615809 0.286984 -0.733771
-0.407544 4.199352 0.564694 -0.180687 -0.549502 0.815720
-0.628132 2.688919 1.906915 -0.534035 0.762924 0.364354
0.596873 -3.327772 -2.069336 0.018507 0.403390 -0.914841
1.465862 0.323694 0.933976 0.138488 0.978643 0.151921
-1.191955 4.608799 -0.597378 -0.988103 0.132479 -0.078118
-0.341098 4.914110 -0.688859 -0.087452 0.980255 0.177346
1.031804 -2.838253 2.039232 0.513289 0.160232 0.843125
-0.067553 4.039619 -1.939646 0.030546 0.071446 -0.996977
1.148198 0.619560 -1.989721 -0.049825 0.031160 -0.998272
0.565286 -4.745574 0.268208 0.108834 -0.947359 -0.301109
-1.149582 1.088666 1.290659 -0.958466 -0.264645 0.106331
1.967218 -0.560534 -1.801306 0.942554 -0.046890 -0.330748
2.067013 -3.958825 0.227561 0.840779 -0.540053 0.037868
-1.567326 -0.707705 0.912777 -0.897424 0.346032 0.273665
0.586254 -2.803152 -2.094998 0.252477 0.385353 -0.887558
-1.696919 -2.091370 1.085962 -0.891837 0.168260 0.419899
1.683232 0.102473 0.805179 0.852001 0.134410 0.505993
-2.108727 -4.096188 -0.479633 -0.866018 -0.495744 0.065192
-0.208552 4.924423 -0.513640 -0.054524 0.966517 -0.250742
-1.925301 -3.035817 0.892557 -0.873409 0.198213 0.444823
2.025103 -0.708134 -1.553290 0.979491 0.104997 -0.171966
-0.262816 4.944769 -1.511189 -0.023817 0.999545 -0.018517
0.335809 -4.863613 -0.533104 -0.167628 -0.742986 0.647975
-1.980639 -4.562172 0.256472 -0.962574 -0.013244 0.270697
2.111843 -1.608769 -1.066177 0.997545 0.062750 -0.031102
1.328177 1.612756 1.592756 0.992514 -0.050395 0.111245
2.238691 -3.062409 -0.597534 0.992627 -0.053222 -0.108900
-0.878543 -4.924678 -0.864410 0.407738 -0.912110 -0.042484
-1.594355 -1.419150 1.109089 -0.952528 0.087270 0.291676
0.659865 2.840241 -1.948652 0.012768 0.123168 -0.992304
1.679867 -4.192885 1.079863 0.795988 -0.547741 0.257647
1.765623 -4.887212 -1.873142 0.076004 -0.996757 -0.026419
-0.564710 -4.379143 -2.429785 -0.182463 0.150151 -0.971680
-0.182744 4.881369 -1.821312 -0.119629 0.630031 -0.767300
0.936343 3.051240 0.806218 -0.083472 0.739888 0.667532
0.473021 4.841872 0.378446 0.418101 0.672290 0.610916
-1.321705 3.684345 -1.863746 -0.108387 -0.070104 -0.991634
-1.508109 -0.143837 0.885109 -0.874304 0.216715 0.434313
-1.346026 -0.010942 -2.150508 -0.089379 -0.032204 -0.995477
0.948819 -4.878967 -2.215608 0.138101 -0.931076 -0.337676
-0.838052 1.517337 2.019276 -0.522836 0.260413 0.811682
-1.513036 2.255655 -1.479313 -0.753890 -0.651039 0.088304
0.181898 -0.773527 -2.060043 -0.067477 0.100877 -0.992608
-1.172136 -2.527664 1.924920 -0.605679 0.191235 0.772387
0.117069 2.010254 2.204446 -0.051053 0.956489 0.287266
-0.414825 -4.806628 0.735576 -0.292909 -0.953523 -0.070701
0.578427 -2.318160 -1.872780 0.201291 0.226821 -0.952908
-1.824914 -3.095062 1.092823 -0.879123 -0.066128 0.471985
-0.695578 -5.110621 -1.663081 0.206024 -0.973308 0.101121
0.149457 4.938829 0.213032 -0.072940 0.989471 0.125005
-1.614138 -1.182373 0.979291 -0.929465 0.126659 0.346487
-2.162216 -2.318262 -0.677836 -0.996012 -0.019549 0.087052
-0.762061 -1.396999 -2.027905 -0.149790 -0.059747 -0.986911
0.758564 -2.127172 2.174030 0.191440 0.207801 0.959255
1.724967 -4.385756 0.838374 0.897680 0.089050 0.431557
-0.099464 4.818826 0.458412 -0.140864 0.647327 0.749083
-1.268843 2.416869 -0.397642 -0.999417 0.033191 -0.007964
-0.842104 0.547873 1.474678 -0.688523 -0.601717 0.404812
1.891379 -1.795303 0.410672 0.995826 0.010232 -0.090696
-1.101522 -4.822211 -1.012267 -0.289628 -0.954988 -0.064137
-0.959534 1.962342 -1.893300 -0.679256 -0.005225 -0.733883
-0.508334 -3.209271 2.252694 0.500647 -0.143750 0.853633
-0.421861 0.948978 2.241783 -0.336714 -0.473866 0.813679
0.797997 -4.899963 -1.780677 0.042382 -0.997915 0.048673
-1.840049 -1.113150 0.193517 -0.993802 0.003424 0.111115
-1.822950 -4.173439 -1.989646 -0.498734 0.313896 -0.807919
1.281692 4.228276 -1.191973 0.990317 0.131224 -0.045311
1.644634 -1.487794 1.379144 0.904387 -0.068235 0.421222
1.043786 -4.382879 1.753886 0.490268 -0.549788 0.676292
-0.459226 0.710176 2.013057 -0.272955 -0.701508 0.658318
-0.158447 -2.943089 2.277439 -0.092150 0.509785 0.855353
1.787454 -4.152727 0.817116 0.808671 -0.527637 0.260097
-0.001676 -2.023561 -2.023154 -0.157485 -0.049394 -0.986285
-1.839976 0.391633 -0.754699 -0.673159 0.282565 0.683384
1.132814 -1.493308 -1.977198 0.063317 -0.041474 -0.997131
-0.337289 -2.474821 2.304966 -0.172716 0.239227 0.955479
-0.184076 3.193300 1.352932 -0.623544 0.688387 0.370561
0.614109 0.021377 1.575496 0.292877 0.330240 0.897310
-0.891414 2.502525 1.408475 -0.706234 0.458756 0.539237
1.044645 2.297699 1.656424 0.913702 -0.197555 0.355136
-0.404399 2.953408 1.337991 -0.934984 0.348945 0.063580
-1.807472 -0.281449 0.106304 -0.966634 0.235109 0.101700
-1.187157 -2.878742 1.956116 -0.701632 -0.054959 0.710416
2.103221 -4.355481 -0.459215 0.995804 0.016991 0.089919
-1.815717 -3.047153 1.119634 -0.858426 -0.121078 0.498443
-1.817193 -2.349586 0.556749 -0.995758 -0.077094 0.050218
0.430473 -3.438455 2.347707 0.112605 -0.163356 0.980120
1.057460 3.590830 -1.912442 0.099038 -0.193978 -0.975994
0.050243 1.327481 -2.024263 0.006573 0.138964 -0.990276
1.418977 0.778126 -1.976509 -0.043486 -0.148304 -0.987985
-2.054317 -4.898264 -0.555149 0.024432 -0.999556 0.017067
-0.353300 -0.057842 1.657162 -0.238853 0.378240 0.894362
-1.241148 -4.593531 0.141764 0.107685 -0.993594 0.034273
1.252295 -4.903755 -1.564795 0.036188 -0.999323 -0.006658
-0.241106 4.945889 -1.478628 -0.023817 0.999545 -0.018517
-1.788022 0.344514 -0.528516 -0.959823 0.280592 0.002652
1.189715 -4.836109 0.457976 -0.488358 -0.817584 -0.305060
1.981874 0.596973 -1.580772 0.933437 0.336846 -0.123413
0.160421 0.037853 1.704682 -0.183236 0.341206 0.921956
-1.844143 -1.765148 -0.315060 -0.989931 -0.032958 0.137659
-0.490864 3.193796 0.828142 -0.266537 0.671116 0.691781
-0.610183 4.905051 -0.042737 -0.082898 0.970394 0.226855
1.390227 2.987750 -0.124206 0.998452 -0.016268 0.053192
-1.285106 -4.919752 -1.578083 -0.052974 -0.994643 0.088759
-1.836516 -1.636808 -0.084567 -0.985191 0.074226 0.154561
-0.617954 4.253708 -1.906952 -0.049940 0.026504 -0.998400
1.882331 -1.183330 0.438335 0.999946 -0.005373 0.008885
1.351324 2.136626 -0.723913 0.996780 0.009736 0.079598
-1.600499 -4.881013 0.619113 0.028549 -0.999289 0.024647
1.285563 0.543694 0.348554 0.970463 0.220391 0.098133
0.410136 0.293638 -1.839650 0.055757 0.084413 -0.994870
1.293012 4.053723 0.035373 0.963089 0.219316 0.156078
-2.019492 -2.618771 0.554623 -0.940694 0.294314 0.168743
1.356349 3.090036 -0.874776 0.944092 0.060759 0.324034
-0.891539 2.777707 1.108868 -0.437084 0.655668 0.615677
-0.566436 -3.496276 -2.134496 0.016772 0.369237 -0.929184
2.156411 -2.444342 0.096297 0.979999 0.136493 0.144814
1.218528 3.371379 -1.906523 0.083784 0.076898 -0.993512
1.757062 -4.535916 0.641193 0.655912 -0.748485 0.097720
0.349201 3.179529 -1.958042 0.009359 0.017947 -0.999795
-0.247247 -0.770137 1.981964 -0.119416 0.269397 0.955597
1.194446 -4.836415 1.445816 0.479256 -0.765732 0.428915
-0.345357 -4.801991 0.278269 0.078308 -0.955062 0.285875
-2.005639 -3.437538 0.710531 -0.946754 -0.060639 0.316195
0.778203 -3.129812 2.304782 -0.022404 0.018310 0.999581
-0.254434 1.513102 -2.016190 0.076545 0.176213 -0.981371
0.424326 -0.929852 1.603901 0.078234 0.261826 0.961939
1.234480 4.670751 -1.227123 0.980987 0.190546 -0.036825
-1.749079 0.767339 -1.546704 -0.386297 0.902481 0.190532
1.047777 -3.997759 -2.170140 0.089519 0.192893 -0.977128
-1.540931 0.027739 0.761506 -0.858811 0.286866 0.424442
-0.546832 -0.262069 1.666229 -0.243650 0.111120 0.963477
-0.537682 4.912283 -0.225270 -0.055381 0.997621 0.041058
1.261241 -4.742613 1.517290 0.669477 -0.471913 0.573671
-0.516127 -0.106663 1.621566 -0.314386 0.309643 0.897375
-2.020654 -3.421511 0.668647 -0.946754 -0.060639 0.316195
-2.206389 -2.895701 -0.274704 -0.984121 -0.012868 0.177030
0.179017 -4.811237 -1.070095 -0.180359 -0.952336 0.246022
1.748168 -4.182293 0.913218 0.778537 -0.588125 0.219063
-1.686962 -4.920509 -1.685240 -0.028364 -0.973570 0.226620
1.368483 3.606742 -0.061635 0.979702 0.029469 0.198279
0.337492 1.207275 2.348758 0.202132 0.463717 0.862618
-2.005879 0.401462 -1.635453 -0.999676 0.016571 -0.019303
1.355982 2.054549 -0.334229 0.989763 -0.115244 -0.084187
-0.699029 -2.155153 2.060166 -0.382130 0.279081 0.880960
1.195708 1.453153 -1.677932 0.938407 -0.045156 -0.342568
-1.158365 4.521198 -1.626165 -0.983063 0.167901 -0.073458
-1.053911 1.242577 1.862161 -0.867329 -0.140298 0.477554
1.119982 2.651893 1.235125 0.497164 0.670469 0.550726
0.928338 -4.897435 -1.666334 0.111691 -0.981570 0.155065
-1.318511 -0.640638 1.306677 -0.659581 0.159859 0.734437
0.341847 1.477766 2.313313 0.234436 0.398922 0.886511
-1.166111 -2.964118 -1.831879 -0.034424 -0.063215 -0.997406
1.030358 0.683229 1.670185 0.567271 -0.639278 0.519160
0.956560 -2.725371 2.250143 0.241864 0.092518 0.965890
-1.156997 -2.236021 1.864299 -0.562793 0.234008 0.792782
2.066628 -0.124660 0.505834 0.935399 0.173427 0.308142
1.504478 0.418970 0.429142 0.163843 0.938388 0.304276
-1.249249 3.505830 -0.672063 -0.994852 -0.037753 0.094039
-1.180688 4.675033 -1.229369 -0.986176 0.121178 -0.113017
0.373021 2.320653 1.980821 0.066843 -0.634826 0.769759
-1.258139 2.433324 0.176670 -0.991949 0.124902 0.020894
0.027936 -1.832908 2.167198 0.233991 0.113015 0.965648
-1.222309 1.650043 1.370598 -0.996396 -0.084057 0.011364
0.626336 1.017499 -1.994588 0.013177 0.265566 -0.964003
-0.912120 4.940392 -0.884690 -0.136834 0.937478 0.320017
2.022938 -2.065104 -1.668767 0.823066 -0.078621 -0.562478
1.996664 -4.194228 -0.034343 0.996106 -0.037291 0.079889
-0.217588 -1.673621 -1.911763 0.035196 -0.290618 -0.956192
-1.119848 3.795511 0.097343 -0.706237 -0.253988 0.660847
0.680970 -0.856189 1.799621 0.289087 0.334290 0.897039
-0.730700 -2.548785 -1.932701 -0.050423 -0.201159 -0.978260
1.199920 1.155034 -1.401787 0.914411 0.179788 -0.362669
1.810378 -0.200278 -1.949731 0.281260 -0.072228 -0.956910
-0.853904 4.938610 -1.074185 -0.032235 0.995630 0.087650
-1.268378 -4.822251 0.205137 0.215833 -0.975421 -0.044389
-0.936247 -4.828883 0.983051 0.006659 -0.983433 -0.181149
1.357293 1.999404 0.879376 0.996917 -0.073056 -0.028625
-1.205465 1.174672 0.018341 -0.989310 -0.145387 -0.011351
1.383814 0.704714 -0.640390 0.405239 0.851512 0.332730
1.358123 2.383738 -0.398862 0.983869 -0.132498 -0.120193
2.244436 -3.067354 -0.811987 0.997920 0.006114 -0.064180
-1.436810 3.314412 -1.073853 -0.480803 0.143636 0.864984
-2.027657 -0.933907 -0.753020 -0.976112 0.085412 0.199774
0.248030 -0.564952 -2.051542 0.112861 0.053308 -0.992180
-2.090402 -4.256414 -1.540692 -0.974083 0.038839 -0.222833
2.102929 0.519343 -1.057752 0.991747 0.128193 -0.001847
0.991190 4.414859 0.337939 0.627201 0.365317 0.687868
0.825387 -2.404431 2.248368 0.416426 0.134826 0.899117
1.347804 1.922298 0.962889 0.977058 -0.212464 -0.014724
1.897559 0.072128 -0.095005 0.994543 -0.081623 -0.064982
1.056627 -3.533552 2.207537 0.536805 -0.508394 0.673332
0.170498 -1.934616 -1.996791 -0.054657 -0.224174 -0.973015
-0.373353 1.763307 -2.014648 0.111027 0.016489 -0.993681
-0.576189 4.811398 0.291366 -0.373449 0.717022 0.588570
-0.189900 -0.817191 1.863590 -0.085574 0.286639 0.954209
-1.146997 1.283361 -1.682641 -0.966197 0.160112 -0.202059
1.802159 -2.003608 1.095580 0.975700 0.111413 0.188669
1.289989 0.979398 1.506682 0.996919 -0.073505 -0.027368
1.427208 -4.764529 1.246702 0.772169 -0.493366 0.400431
0.715553 -4.897101 -1.622240 -0.094413 -0.984011 0.151026
-2.205836 -3.168822 -1.382939 -0.785737 -0.158935 -0.597794
1.593736 0.676408 -1.969982 0.048297 -0.098378 -0.993976
-0.648148 4.881150 0.152661 -0.311286 0.912409 0.265726
0.896110 0.176969 -2.019585 0.022569 -0.165159 -0.986009
-0.351616 -4.797446 0.295158 0.078308 -0.955062 0.285875
-1.189425 -2.283753 1.862179 -0.625330 0.403981 0.667654
1.812107 -4.886225 -0.991776 -0.015755 -0.999640 -0.021740
0.994004 -4.225496 1.751612 0.144734 -0.578508 0.802733
1.175951 -4.905131 -1.521573 0.007695 -0.998863 -0.047058
1.006021 0.295962 1.228540 0.148896 0.905849 0.396570
-1.247515 3.792605 -0.810125 -0.998556 0.000036 0.053723
0.968780 -3.770112 2.063750 0.565087 0.239498 0.789505
-1.873136 -4.903967 0.001085 0.339539 -0.819398 0.461844
-1.659606 -1.233940 0.904675 -0.878963 0.250578 0.405751
1.200506 1.003773 1.730497 0.905360 -0.354473 0.233819
-1.409894 0.377343 -0.004064 -0.171676 0.941579 0.289753
1.340874 -1.098898 1.597334 0.633796 0.281657 0.720397
-0.147819 3.493936 1.126065 -0.583531 0.689345 0.429295
-1.802037 -3.834638 -1.862412 -0.487975 0.333284 -0.806723
-0.935171 2.101314 -1.914564 -0.351196 -0.134898 -0.926533
-1.218800 2.571754 0.858484 -0.983288 0.099089 0.152728
0.872744 -0.609191 1.456702 0.239958 0.137985 0.960927
1.594045 -4.842870 0.683339 0.514161 -0.826051 0.230823
2.097828 -4.688595 -1.779966 0.937487 -0.118734 -0.327139
1.690189 -3.039114 1.635087 0.763649 -0.054997 0.643285
-2.150131 -3.372181 -1.376184 -0.637683 -0.248733 -0.729035
0.958114 4.274393 0.452192 0.517824 0.050567 0.853991
0.242178 3.904307 0.532790 0.391620 0.687622 0.611399
-1.113226 -4.825788 0.904116 0.093565 -0.995007 -0.034744
-0.734051 2.693851 1.613320 -0.398580 0.910404 0.110900
0.350685 1.656773 2.248696 0.129967 0.671483 0.729533
-1.649997 -3.117673 1.272975 -0.813108 -0.116149 0.570408
1.117470 2.649578 -1.919239 0.151268 0.051292 -0.987161
-1.171680 1.406217 -1.392537 -0.981629 -0.130552 -0.139142
-0.638242 3.681449 0.302457 -0.059386 0.683093 0.727913
-2.035591 -1.539493 -0.521817 -0.830613 0.181001 0.526613
0.629130 0.829227 -2.001151 0.011702 0.085300 -0.996287
-0.080458 3.172255 1.819750 -0.255443 0.894513 0.366872
-1.163490 -1.064173 -2.043787 -0.125862 -0.104510 -0.986528
1.964862 -0.789693 -0.461838 0.626209 -0.117416 0.770763
2.043328 -2.958222 -1.420604 0.638978 -0.218274 -0.737607
0.315322 5.019924 0.419504 0.146334 0.744301 0.651615
2.088227 -4.249557 -0.391505 0.979889 -0.013091 0.199114
-1.271972 0.682532 0.573245 -0.992147 -0.069553 -0.103959
2.195225 -2.564106 -1.163363 0.989720 0.068205 -0.125705
-2.017214 -4.311177 0.053167 -0.982250 0.155117 0.105473
-2.202546 -2.502536 -0.996538 -0.998549 0.053789 -0.002657
0.128201 -3.166528 -2.047095 0.069325 0.034966 -0.996981
0.882712 -4.709110 0.714120 -0.802465 -0.595592 -0.036330
1.660030 2.507082 0.467174 0.998063 -0.052749 -0.032981
-0.820460 -4.410686 1.972176 -0.317546 -0.278153 0.906529
-0.805022 0.485575 1.458385 -0.695995 -0.502856 0.512569
2.181985 -3.706349 -0.847226 0.934346 -0.284522 -0.214582
-1.273467 0.733315 -0.261954 -0.995962 -0.036601 -0.081975
0.988617 4.909940 -0.217968 0.540664 0.763186 0.353878
-0.455602 4.329930 0.531814 -0.432154 -0.107897 0.895322
-0.781014 -0.567412 -2.068648 -0.003961 0.128298 -0.991728
0.177475 3.068164 2.056023 0.307920 0.811585 0.496502
-0.590086 -4.846242 1.762542 0.040484 -0.984583 -0.170166
1.328103 1.296103 -0.062850 0.996546 -0.078890 -0.025924
-0.103878 3.701160 0.792384 -0.390876 0.811709 0.433986
0.685422 -3.682265 2.290931 0.743303 0.022526 0.668576
-0.905680 -0.185418 1.499238 -0.492454 0.226547 0.840337
-0.757828 2.105541 -1.973982 -0.176895 -0.116556 -0.977304
-1.081151 -4.881291 -0.873631 -0.267966 -0.797492 -0.540555
0.927059 -0.821883 1.748441 0.289087 0.334290 0.897039
0.464518 0.529436 1.868019 0.170548 -0.785484 0.594919
1.447386 -3.673937 -1.887563 0.339330 0.558914 -0.756618
2.058263 -2.539515 0.543962 0.533439 0.786959 0.310063
1.834567 0.032675 0.433534 0.934112 0.047020 0.353870
0.827256 -1.896245 2.083499 0.337558 0.288125 0.896124
-0.813531 -4.865548 -0.546326 0.154076 -0.717610 0.679188
1.174181 2.792160 -1.914545 0.092196 0.033756 -0.995169
1.329098 1.348439 1.120853 0.992749 -0.120066 0.005799
0.002684 -1.503772 -2.038051 -0.137026 -0.207918 -0.968501
-1.884870 -0.771882 -0.537286 -0.534226 0.053717 0.843633
1.104936 4.965917 -1.167624 0.421128 0.887739 0.185932
1.841918 -2.984719 1.115118 0.854063 0.254875 0.453447
1.156507 4.638870 -0.050938 0.784263 0.425889 0.451165
-0.243995 -0.558762 1.827488 0.160390 0.112871 0.980579
-0.482930 -2.709799 -1.929949 0.057172 -0.313808 -0.947764
-0.891947 -3.396803 -2.089585 -0.172106 0.185271 -0.967499
-1.963037 0.010393 -0.848216 -0.961480 0.185770 0.202597
-1.454603 -4.253353 1.554486 -0.634332 -0.518496 0.573398
1.721157 -0.070989 0.789683 0.911304 0.131056 0.390319
-2.199856 -2.679056 -1.364109 -0.995735 0.087871 0.028115
2.175450 -2.242508 -0.739756 0.999207 0.006773 0.039239
-0.587425 -0.979115 -2.083479 0.044887 -0.053937 -0.997535
-1.198832 3.116355 0.438451 -0.969805 -0.107554 0.218886
-1.266640 1.891969 -0.363121 -0.999927 0.002584 -0.011838
-1.176792 0.258095 -2.071809 0.004775 0.056701 -0.998380
-0.343665 -3.010920 2.351011 -0.004342 0.133411 0.991051
-0.190115 2.093552 1.864789 -0.104983 0.746835 0.656671
-0.115342 -3.286262 -2.080683 0.015193 0.291698 -0.956390
-2.154148 -2.105017 -0.844920 -0.991464 0.121814 0.046488
-0.800492 3.401032 -1.946182 0.024238 0.077049 -0.996733
-0.251098 2.975602 2.021266 -0.571220 0.718029 0.397670
-0.424800 2.271262 -1.997234 -0.027012 0.105353 -0.994068
1.380324 2.282161 0.944511 0.991077 -0.127924 -0.037433
1.103851 2.965657 -0.685103 0.998167 0.042175 0.043394
1.843737 -1.206572 0.712512 0.974752 0.081194 0.208003
-2.196952 -2.407425 -0.948039 -0.994588 0.101589 -0.021797
-0.246639 4.486481 0.699650 -0.348812 0.412879 0.841345
-2.093690 -1.553870 -1.521529 -0.936278 0.132996 -0.325108
-1.187384 4.603045 -1.052575 -0.998742 -0.037887 0.032834
1.433184 -4.236710 1.637234 0.737403 -0.598163 0.313748
-2.227016 -3.752790 -0.259013 -0.988212 0.038213 0.148245
-0.459434 3.258871 0.777364 -0.512645 0.591784 0.622082
0.813396 -4.776423 1.868459 0.694989 -0.615867 0.371077
-0.064354 -3.579641 -2.166102 0.038030 0.270576 -0.961947
0.501297 -1.376811 2.018045 0.162990 0.416308 0.894496
-1.759014 -4.668542 -0.947038 0.041806 -0.995858 0.080740
1.313021 1.395046 1.391435 0.983004 -0.181715 0.026119
-0.615489 4.803290 0.080266 0.069437 0.997579 0.003812
-1.458295 -4.197467 1.568038 -0.715326 -0.164585 0.679132
-1.432681 -0.647890 1.163069 -0.765105 0.206290 0.609966
-0.979267 4.156100 -1.869849 -0.142226 -0.232376 -0.962171
0.363773 -3.946797 2.352993 0.074322 -0.149067 0.986030
-0.548719 -4.231401 -2.313569 0.032226 0.197914 -0.979689
-1.257247 2.331520 -1.704203 -0.993584 -0.094113 -0.062712
-2.168892 -2.112381 -1.229981 -0.998120 0.058920 0.016865
-1.470574 2.359483 -1.112605 -0.880041 0.032723 0.473769
-0.801553 1.661259 1.981903 -0.517016 0.333791 0.788212
-2.217462 -3.419803 -0.295483 -0.983245 -0.009579 0.182035
-2.158899 -2.006624 -1.613014 -0.993992 0.099003 0.046673
0.786185 0.859576 1.883716 0.345378 -0.645885 0.680843
0.090751 -3.088960 2.335636 -0.072321 0.028066 0.996986
-1.941738 -4.916553 -1.577069 -0.328913 -0.937115 -0.116757
-1.183713 1.457643 -1.395899 -0.986498 0.158165 0.042492
-0.851775 4.226199 -1.899759 -0.152460 0.281673 -0.947321
1.380476 3.377991 -0.222503 0.994096 -0.027939 -0.104846
-0.734781 -2.575903 -1.890440 -0.261630 0.192710 -0.945734
0.093253 -4.829369 -0.164754 -0.280201 -0.935746 -0.214164
-1.736950 -3.103452 1.271354 -0.867249 0.198566 0.456563
1.359373 -3.109248 2.010950 0.754587 -0.209598 0.621826
0.110927 -2.736160 -1.923649 0.041909 -0.175000 -0.983676
1.844427 -1.821499 -0.076651 0.968891 0.028580 0.245833
0.565527 0.831908 -1.774448 0.011702 0.085300 -0.996287
-1.078489 1.928516 -1.784117 -0.782572 -0.144386 -0.605586
0.673791 4.979770 -0.638985 -0.037425 0.998133 0.048270
-0.421333 2.857833 1.463997 -0.802008 0.596414 0.032760
-1.263266 0.563470 -2.055784 -0.076784 0.045328 -0.996017
1.272130 0.877700 -0.756250 0.999668 0.015508 -0.020577
-1.158072 0.759835 0.089831 -0.996158 0.003504 0.087500
1.040392 3.178334 0.748385 0.343607 0.651795 0.676089
-0.295742 -4.858119 1.788205 0.093650 -0.960914 -0.260524
0.742055 3.821209 0.305865 0.108740 -0.574783 0.811049
-1.196862 4.312039 -1.448897 -0.969532 0.236582 -0.063530
-1.183345 -1.892510 1.747371 -0.635377 0.162318 0.754949
-1.125117 1.780710 1.509760 -0.790055 0.468895 0.394905
-1.701932 -3.096406 1.334733 -0.876012 0.192643 0.442144
2.066915 -4.139987 -0.290528 0.964976 0.024352 0.261205
-0.748210 4.334407 0.527343 -0.432154 -0.107897 0.895322
-2.134653 -4.688792 -0.908723 -0.991602 -0.053944 0.117536
0.709097 1.468733 -1.973367 -0.007360 0.272646 -0.962086
0.140439 -2.467989 -1.938071 0.064756 -0.150103 -0.986547
1.993328 -4.139043 0.019197 0.995507 0.018821 0.092793
-1.428070 -3.729431 -1.987087 -0.323108 0.075976 -0.943307
-0.271711 2.852720 2.141455 -0.545618 0.327519 0.771384
1.031639 4.095103 -1.894260 0.091185 0.136816 -0.986391
0.626647 2.597574 2.013902 0.403130 -0.363740 0.839749
-0.352760 4.436887 -2.021867 -0.043399 0.093415 -0.994681
2.015748 -3.633794 -1.273798 0.876871 0.315256 -0.362921
-0.988172 1.338066 -1.905307 -0.718890 0.093206 -0.688846
-0.360468 3.920353 0.410480 -0.265025 -0.459986 0.847452
0.140640 0.141072 -2.040565 0.085488 -0.022566 -0.996084
0.246734 3.332152 1.484474 0.372456 0.845707 0.382173
-0.907222 0.777436 -0.296652 -0.994955 -0.067238 -0.074458
-2.222732 -3.210646 -0.313807 -0.976446 0.172338 0.129816
1.189694 -3.557193 2.112104 0.572461 -0.389968 0.721258
-1.848763 -1.216528 0.019781 -0.998096 0.049303 -0.037076
1.397753 -4.836529 -0.117785 -0.508738 -0.860903 -0.005691
1.746477 -4.490151 0.730520 0.875864 -0.219952 0.429515
-1.196872 1.911508 -0.761911 -0.990326 -0.111028 -0.083225
-0.623144 3.773219 0.270149 -0.305011 0.011947 0.952274
-1.940116 -3.935633 1.067109 -0.935251 -0.005806 0.353937
-0.636263 -0.230203 1.634135 -0.369606 0.233740 0.899309
1.994607 -2.392699 0.502716 0.543290 0.778414 0.314496
-1.953655 0.355147 -0.984248 -0.979054 0.188746 0.076337
-1.779924 -0.853250 0.446640 -0.966386 0.113595 0.230640
-0.376579 -1.871442 2.145038 -0.322207 0.232191 0.917753
-1.807604 -0.464855 0.458319 -0.984507 0.149020 0.092406
1.378880 0.383241 0.717041 0.246124 0.950437 0.189981
1.368773 3.250946 -0.456458 0.997275 -0.068533 -0.027314
-2.068915 -1.037247 -1.302755 -0.994211 0.098774 0.042299
0.046320 -1.897282 -1.811902 -0.018619 -0.284686 -0.958440
0.412669 1.220842 -2.001059 0.001755 0.076792 -0.997046
-1.259677 2.864895 -0.473847 -0.998949 -0.002278 -0.045767
-1.174008 1.032844 -1.113562 -0.999832 0.010217 -0.015241
-0.640350 4.935102 -1.284972 0.041571 0.996787 -0.068468
1.920066 -2.946847 -1.519842 0.385006 -0.244969 -0.889809
-1.377295 3.481856 -1.662937 -0.966981 -0.060097 0.247660
-0.740887 3.500599 -1.920498 -0.093797 0.000576 -0.995591
2.057678 -3.672533 -1.195761 0.946844 0.165535 -0.275833
1.794967 -4.608950 0.561255 0.891617 -0.284838 0.351974
0.080235 2.711334 -1.980282 -0.071832 -0.091010 -0.993256
1.277427 4.230285 -1.854090 0.480762 0.591892 -0.646940
0.681217 -4.697793 0.811663 0.249407 -0.582403 -0.773694
0.354114 4.059469 0.522969 0.139487 -0.524944 0.839629
-0.668138 -0.021394 1.464523 -0.381297 0.473302 0.794102
-0.276272 -0.790088 -2.081060 0.055816 0.144078 -0.987991
-0.682603 -2.242948 2.133142 -0.409723 0.178782 0.894519
-1.375942 -4.767234 -2.282768 -0.237019 -0.124662 -0.963473
-1.834265 -1.116145 0.226282 -0.993802 0.003424 0.111115
0.957029 -1.538971 -1.996711 0.029013 -0.098334 -0.994731
-0.795707 1.647295 -1.914942 -0.253458 0.131887 -0.958313
0.191499 -4.849348 0.405528 -0.069875 -0.995817 0.058882
-0.278854 3.459311 0.934773 -0.826936 0.485612 0.283475
1.978956 -3.967630 0.628653 0.874174 -0.456519 0.165560
-1.674828 -3.836606 -1.727264 -0.492965 0.396983 -0.774203
0.687494 0.662073 -2.005333 -0.029285 0.070783 -0.997062
1.485765 -2.233448 -1.852419 0.146663 -0.092817 -0.984822
-1.132869 2.575292 1.123809 -0.653978 0.375448 0.656774
1.130449 4.931047 -1.036752 0.796500 0.603506 -0.036981
2.138109 -4.266590 -0.697167 0.985522 -0.094458 0.140796
0.238518 4.502487 -1.926784 0.078601 -0.260090 -0.962380
-1.717326 -1.860365 0.964206 -0.918904 0.327760 0.219520
-1.134371 -2.820059 -1.846257 -0.075757 -0.183995 -0.980003
1.387224 0.436670 -1.977751 0.068342 0.144268 -0.987176
1.376730 2.222347 0.381838 0.998401 -0.046810 -0.031687
-1.043205 -4.933994 -1.829342 0.125989 -0.988155 -0.087616
1.698947 -3.267052 -1.584852 0.523964 0.368870 -0.767722
0.712635 -2.228342 2.216517 0.232233 0.420326 0.877151
0.529681 2.087714 1.898544 0.019286 0.576102 0.817150
-0.150916 0.126436 -2.068966 0.159498 -0.064430 -0.985093
0.520354 -2.135456 2.236207 0.096320 0.401974 0.910571
-1.004167 -4.847432 0.057205 0.541874 -0.785130 0.299906
1.848177 -1.396645 0.729478 0.966976 0.122212 0.223656
0.015144 0.551104 2.012131 0.001486 -0.564197 0.825639
-0.221462 -1.803327 2.150229 -0.035023 0.396816 0.917230
1.664691 -3.550148 1.596781 0.748237 -0.381874 0.542507
-0.297258 2.402010 1.835274 0.074063 -0.668949 0.739609
-2.032186 -4.010841 -1.617286 -0.816486 0.479914 -0.320988
-1.553974 0.591434 -2.102548 -0.023029 0.285032 -0.958241
2.224241 -3.052338 -0.949231 0.986209 0.075520 -0.147271
-0.056675 -5.120057 0.984998 -0.125459 -0.913645 0.386668
-2.171048 -2.190134 -1.172192 -0.999964 0.004328 -0.007249
-2.086492 -1.276921 -1.178307 -0.992341 0.106100 0.063260
-1.908667 0.192038 -2.000746 -0.233263 0.036204 -0.971739
-2.024883 -1.666204 -1.704451 -0.528154 -0.048935 -0.847738
0.909991 3.514506 0.466194 0.119459 0.712533 0.691395
0.868857 -5.065495 1.423815 0.057997 -0.998117 -0.019954
-1.308385 -0.214077 1.160945 -0.770222 0.144061 0.621292
-0.018430 -5.045651 -1.968597 -0.211133 -0.974354 0.077832
-0.398194 -3.767050 2.265660 -0.495659 -0.054919 0.866779
1.392802 2.642194 0.435957 0.996439 0.052358 0.066084
-0.557816 4.935467 -1.182909 0.041571 0.996787 -0.068468
1.161035 0.531427 1.127239 0.948523 -0.152530 0.277557
0.267357 -4.838220 -0.301416 -0.232026 -0.968713 -0.088084
1.022327 -4.814901 0.113065 0.379633 -0.924580 -0.032099
0.773469 0.680774 1.912858 0.417430 -0.770773 0.481311
-1.208282 1.203139 1.235502 -0.990045 -0.140726 -0.002687
-2.191416 -3.568001 0.026930 -0.974602 0.070180 0.212663
2.016151 -1.217564 -1.673477 0.948051 -0.018570 -0.317576
1.051888 2.553497 1.693778 0.997751 -0.064167 -0.019399
-1.947569 -4.525358 -2.034198 -0.484132 0.125744 -0.865913
-1.077488 -3.172570 2.072657 -0.580081 -0.221266 0.783931
1.998768 -1.894531 -1.695275 0.641610 0.059816 -0.764695
1.113573 1.730322 -1.803568 0.734983 -0.075825 -0.673833
-1.824858 -0.277151 -0.116398 -0.974221 -0.202598 0.099234
-0.828929 0.825159 -2.039723 0.081846 0.161959 -0.983397
-1.355602 3.018244 -1.026389 -0.458786 0.112001 0.881460
-1.964680 -3.850113 -1.736009 -0.785145 0.434133 -0.441674
-0.812717 -4.797118 0.527691 0.220689 -0.888661 -0.401968
2.085580 -4.457089 -1.794396 0.911500 0.384587 -0.145811
1.799710 -2.762281 -1.637996 0.392307 -0.388699 -0.833672
1.884712 -0.591034 0.208098 0.975449 0.210843 -0.063595
-0.584912 2.623962 -1.903580 -0.040594 -0.055550 -0.997630
1.843098 -1.002829 -0.182582 0.965704 -0.102955 -0.238360
-1.485396 -2.215578 1.534285 -0.779615 0.270467 0.564843
0.080011 -3.716144 -2.181648 0.028046 0.281241 -0.959227
-0.670519 -1.193144 1.855582 -0.354798 0.049642 0.933624
0.969641 4.927809 -0.233136 0.410951 0.874944 0.256109
1.073058 0.046881 -1.975046 -0.004938 -0.076234 -0.997078
0.836653 3.010918 -1.942496 0.073292 0.020222 -0.997105
0.567203 -4.872515 -1.567653 0.161616 -0.902512 -0.399189
-2.110632 -1.954826 -0.653703 -0.989778 0.035685 0.138081
-1.241528 2.551307 0.364020 -0.994925 0.068019 0.074144
1.029017 -2.464922 -1.868051 0.112400 -0.243974 -0.963246
-0.686977 2.996685 0.982290 -0.073981 0.702574 0.707754
