ply
format ascii 1.0
element vertex 839
property float x
property float y
property float z
property float nx
property float ny
property float nz
end_header
-0.583733 0.180926 0.354466 -0.803241 -0.565664 -0.186622
0.459904 0.063408 0.157574 -0.112718 0.209882 0.971208
-0.430503 -0.362723 0.042385 -0.037889 -0.691953 0.720947
-0.425520 -0.026856 -0.186903 -0.882565 -0.250259 -0.398057
-0.349492 0.157381 -0.211391 -0.384987 0.733966 -0.559534
0.638829 -0.065024 -0.018589 0.454338 -0.251718 -0.854526
-0.477321 -0.122871 -0.134015 -0.923045 -0.354351 -0.149744
-0.077734 -0.135186 0.107632 -0.132818 -0.471952 0.871562
0.640389 0.121495 -0.132637 0.583853 0.276394 -0.763362
-0.568111 0.121353 0.435533 -0.432555 -0.900367 -0.047277
0.566225 -0.516303 0.288582 0.114539 0.328129 0.937663
-0.093666 -0.012271 0.153721 0.505266 -0.020154 0.862728
-0.458753 0.194337 -0.128599 -0.520771 0.253207 -0.815282
0.099274 0.051459 -0.287546 0.171932 0.520814 -0.836177
0.105106 0.175993 -0.175961 -0.014340 0.933475 -0.358355
0.217747 -0.183771 -0.168035 0.563104 -0.525854 -0.637489
-0.398704 -0.087967 0.108863 -0.775257 -0.186777 0.603400
0.280821 -0.532106 -0.333877 -0.482136 -0.166275 -0.860173
-0.436868 0.144338 0.267624 0.533899 -0.808451 0.247707
-0.336364 -0.229326 0.104637 -0.086406 -0.492328 0.866110
0.407950 0.155370 0.130680 0.078439 0.653023 0.753265
0.380407 0.150569 0.132703 -0.171342 0.545964 0.820100
-0.451206 -0.353276 0.037239 -0.418355 -0.109459 0.901664
-0.324086 0.094570 0.183620 0.218723 -0.563661 0.796522
-0.705839 0.376631 0.162447 -0.364524 0.884851 0.290104
-0.398660 -0.180936 -0.187961 -0.521701 0.275100 -0.807557
-0.422197 0.117765 0.228331 -0.154904 -0.914920 0.372727
0.167031 -0.234222 0.004158 0.168386 -0.918926 0.356681
-0.264490 0.410029 0.522867 0.627395 0.037726 0.777787
-0.233003 -0.129259 -0.375556 0.248609 0.268211 -0.930729
0.525619 -0.146763 0.189313 -0.352572 -0.128546 0.926914
-0.640041 0.340160 0.190058 -0.380970 -0.923700 -0.040508
0.609969 -0.227584 0.116219 -0.387262 -0.797009 -0.463470
-0.209480 -0.290455 -0.035604 -0.124313 -0.982532 0.138481
-0.302732 0.434615 0.369302 0.069857 0.997544 -0.005137
-0.652761 0.388030 0.147250 0.003309 0.822410 -0.568885
-0.535642 0.209371 0.478568 -0.098112 0.409963 0.906810
-0.335488 -0.352593 -0.449989 0.286976 0.060587 -0.956020
-0.432303 0.461698 0.309085 -0.055226 0.996338 -0.065267
-0.090572 -0.284043 -0.163191 0.144609 -0.867517 -0.475924
-0.134171 0.194990 0.125011 0.342093 0.461595 0.818476
-0.338154 0.343043 -0.058489 0.059898 0.597594 -0.799559
0.388677 -0.414282 -0.316085 0.005516 0.581952 -0.813204
0.588075 0.218136 -0.068888 0.165905 0.841385 -0.514341
0.105049 -0.268435 -0.065688 0.183890 -0.981248 0.057772
-0.567474 0.244420 0.175406 -0.955223 -0.158246 -0.250014
0.581972 -0.198294 0.200058 -0.160650 -0.344312 0.925009
-0.480318 0.114044 -0.086375 -0.880352 -0.169721 -0.442916
-0.035678 -0.128133 0.117609 -0.128751 -0.454456 0.881415
0.673805 -0.248151 0.197232 -0.162127 -0.138094 0.977059
0.542974 -0.014869 0.181190 -0.135012 0.153145 0.978937
0.280852 0.158003 -0.172262 -0.196355 0.697659 -0.688997
0.652124 0.286430 0.033443 -0.305458 0.363180 0.880225
0.659821 -0.107940 0.035227 0.499224 -0.676975 -0.540815
0.539445 0.033184 0.174251 0.020626 0.533042 0.845837
0.216735 -0.286641 -0.131958 0.379540 -0.117387 -0.917698
0.103180 0.195691 0.013720 0.266792 0.620593 0.737351
-0.544212 0.222258 0.067385 -0.907316 -0.418564 -0.039780
0.661039 -0.194533 0.177201 0.515439 0.167952 0.840307
-0.392598 0.354417 -0.043753 -0.383898 0.614471 -0.689237
-0.246615 0.365809 0.299376 0.495796 0.453529 -0.740606
-0.421360 0.188874 -0.152355 -0.058587 0.588759 -0.806183
-0.705097 -0.537675 -0.039926 -0.428600 -0.007715 0.903462
0.129319 -0.025487 0.157480 0.067231 0.226354 0.971722
-0.326784 -0.363840 -0.406285 0.516007 -0.707990 0.482169
0.475746 0.210733 0.036605 -0.203845 0.707685 0.676483
-0.291886 0.195982 0.219422 0.296145 -0.208103 0.932197
0.522790 -0.528113 0.217685 -0.003151 -0.960845 -0.277067
0.346091 -0.067380 -0.236067 -0.606281 -0.159352 -0.779122
0.385889 0.217384 -0.093508 0.051703 0.990863 -0.124570
-0.432813 0.081437 -0.143392 -0.788318 -0.228655 -0.571202
0.386402 0.209475 -0.150124 -0.151513 0.657146 -0.738378
-0.410053 -0.020724 -0.221743 -0.776947 0.303707 -0.551467
-0.042665 -0.137482 -0.302898 0.083147 -0.104258 -0.991068
0.483050 -0.335387 -0.221996 -0.488781 -0.444522 0.750662
0.348094 -0.436354 -0.331084 -0.588438 0.787750 -0.182186
-0.228880 0.141972 0.169500 0.066998 0.208286 0.975771
-0.412322 0.038267 0.147078 -0.313406 -0.696308 0.645703
-0.192454 0.148419 0.164298 0.269901 -0.031216 0.962382
-0.058056 -0.228824 0.065843 -0.111799 -0.810849 0.574478
-0.397054 -0.096221 -0.219272 -0.841066 -0.112722 -0.529057
-0.403463 -0.074945 -0.215990 -0.789711 -0.158584 -0.592627
0.165073 -0.203472 0.079896 0.249060 -0.747927 0.615284
-0.292805 0.399426 0.320598 0.352475 0.875326 -0.331007
0.647522 0.086057 -0.140043 0.588886 0.330279 -0.737651
0.229014 -0.233763 -0.058605 0.346383 -0.885073 0.310908
0.558519 -0.188878 0.105185 -0.472986 -0.480135 -0.738752
-0.162847 0.274209 0.086037 0.439001 0.738336 0.511994
-0.088547 -0.294832 -0.100433 0.116964 -0.991423 0.058316
0.360624 -0.112430 0.101863 -0.346104 0.018606 0.938012
-0.319938 -0.357586 -0.426599 0.850559 -0.525870 -0.003262
-0.567999 0.227490 0.457897 -0.650186 0.583050 0.487146
0.239195 0.049407 0.126713 0.058776 0.375839 0.924819
-0.482109 -0.563927 -0.542437 0.064858 -0.942353 -0.328276
0.435601 -0.071444 0.158165 -0.537191 -0.215254 0.815531
-0.351072 0.059393 -0.283935 -0.284378 0.479737 -0.830049
-0.482432 -0.498119 -0.536627 -0.861944 0.506929 -0.008708
-0.407393 0.322035 -0.059662 -0.355167 0.206404 -0.911731
0.676843 0.504142 0.308137 0.415085 0.129230 -0.900557
-0.027859 -0.285985 -0.081569 0.136502 -0.988755 0.061082
0.109746 0.177386 -0.172517 -0.014340 0.933475 -0.358355
0.048692 -0.140399 -0.295044 0.055731 -0.113595 -0.991963
-0.521574 0.382737 0.074859 -0.557816 0.632648 -0.537213
0.397273 -0.082326 -0.262992 -0.180054 -0.076482 -0.980679
0.521649 0.238841 0.021032 -0.203845 0.707685 0.676483
-0.010457 -0.215692 0.085958 0.214744 -0.589775 0.778492
-0.117263 0.232515 0.093117 0.385018 0.682862 0.620855
0.646233 0.169349 0.066282 0.841114 0.501734 0.201967
0.230647 -0.226251 -0.039038 0.346383 -0.885073 0.310908
0.387448 -0.469097 -0.347138 0.421422 0.437656 -0.794267
-0.341703 -0.284327 -0.079857 -0.218000 -0.938752 0.266873
0.538001 -0.246020 -0.192354 0.252263 -0.115040 0.960796
0.619695 -0.192569 0.201283 0.462010 0.245993 0.852077
0.366255 -0.513920 -0.308181 0.347074 -0.928772 -0.130083
-0.413562 -0.348007 -0.427077 -0.942975 0.331486 0.030266
-0.414808 -0.190121 -0.044979 -0.873262 -0.480061 -0.083393
0.315007 0.140015 0.096149 -0.700355 0.424671 0.573723
-0.282979 0.380562 0.141918 0.761706 0.633666 0.135171
0.088270 0.199750 0.007081 0.026838 0.944793 0.326566
-0.286389 0.374338 0.047714 0.459414 0.783784 -0.417877
0.350224 0.217382 -0.117005 0.098895 0.990888 -0.091437
-0.112422 0.253464 0.067073 0.385018 0.682862 0.620855
-0.329695 0.269354 0.272021 0.260228 -0.227122 0.938454
-0.462646 0.029299 -0.079254 -0.853745 -0.394431 -0.339917
-0.180077 0.304639 -0.038078 0.468712 0.864641 -0.180846
-0.417608 -0.138554 0.065637 -0.797338 -0.454985 0.396536
0.422691 -0.143342 0.051511 0.039005 -0.997119 -0.065058
-0.258917 0.383370 0.467503 -0.322649 -0.927060 0.190936
-0.230453 0.326487 0.299573 0.564826 0.125517 -0.815608
0.331399 0.226012 -0.015396 -0.356613 0.885808 0.296937
0.438581 -0.164932 -0.142153 -0.015994 -0.480230 0.876997
-0.159437 -0.020642 -0.340641 0.564773 0.320482 -0.760475
-0.443572 -0.150628 -0.114095 -0.843352 -0.385295 0.374572
0.528910 0.227705 -0.066865 -0.026719 0.944198 -0.328293
-0.341557 -0.268244 -0.340930 -0.416454 -0.467233 0.779910
-0.258309 0.319900 0.303040 -0.227223 -0.636117 0.737377
0.237032 -0.183713 0.070648 0.285532 -0.734648 0.615438
0.067225 -0.269138 -0.127675 0.086998 -0.839924 -0.535686
-0.432220 0.248248 0.404306 0.599586 -0.137471 0.788415
0.494420 -0.392573 -0.254232 0.710919 -0.692367 0.123374
-0.346935 -0.067116 -0.341343 -0.326248 0.378263 -0.866302
0.518825 -0.137950 0.010718 0.142486 -0.982984 -0.115932
-0.566587 0.212938 0.193917 -0.844780 -0.448962 -0.291169
-0.469036 0.126082 0.333934 0.485446 -0.871594 -0.068301
0.191851 0.032913 -0.264358 0.578764 0.244525 -0.777971
-0.296220 0.363975 0.003810 0.291627 0.928356 -0.230454
-0.239713 0.330982 -0.012302 0.354263 0.931513 -0.082346
-0.287366 0.418060 0.540930 0.627395 0.037726 0.777787
-0.355157 -0.390897 -0.453759 0.761321 -0.274744 -0.587287
-0.416480 -0.520475 -0.579203 0.653016 -0.046544 -0.755912
0.434070 -0.398587 -0.301869 0.159208 0.367544 -0.916278
-0.507583 0.322716 0.430689 -0.374361 0.318959 0.870700
-0.442264 0.210895 -0.133989 -0.520771 0.253207 -0.815282
-0.331622 0.232201 0.258873 0.082825 -0.384787 0.919282
-0.350528 -0.282750 -0.036660 0.227158 -0.259151 -0.938744
-0.517867 0.109890 0.367431 -0.031547 -0.992068 -0.121682
0.523176 -0.125634 -0.235279 0.664002 0.104866 -0.740341
-0.615449 0.316609 0.275493 -0.986419 -0.131092 -0.098952
-0.378754 -0.268020 -0.190784 -0.662557 -0.663152 0.348205
0.290207 0.100286 0.105628 -0.244879 0.610916 0.752872
0.054740 -0.058145 -0.303450 0.073565 -0.092521 -0.992989
0.464721 0.212176 0.034370 0.069436 0.872982 0.482784
0.327976 0.203062 -0.142571 -0.209358 0.670152 -0.712085
-0.577845 0.295212 0.134248 -0.771757 -0.583868 -0.251970
0.681651 -0.338332 0.156596 -0.552090 -0.428876 -0.715026
0.447055 0.177632 0.103059 0.173589 0.869314 0.462774
-0.057802 -0.076477 0.136012 -0.190850 -0.326921 0.925580
-0.272055 0.328055 -0.060854 0.036535 0.893053 -0.448465
0.645160 -0.230064 0.194043 0.515439 0.167952 0.840307
0.305589 0.184450 -0.153505 -0.209358 0.670152 -0.712085
0.336997 0.091536 0.123532 -0.492826 0.297857 0.817559
0.569745 -0.223069 -0.207414 0.934031 0.356748 -0.017797
0.344335 -0.163622 -0.079557 0.736286 -0.454782 -0.501056
-0.456932 0.394973 0.401151 -0.082750 0.630707 0.771596
-0.319722 -0.334561 -0.379129 0.492487 -0.544080 0.679289
-0.396298 0.321237 -0.064165 -0.355167 0.206404 -0.911731
0.277400 0.181246 -0.148730 -0.171223 0.618870 -0.766605
-0.158663 -0.196101 0.078456 0.851036 -0.523772 -0.037422
0.180864 0.083721 0.111087 -0.005799 0.535471 0.844534
0.564889 0.117085 -0.192119 0.588886 0.330279 -0.737651
-0.579864 0.185757 0.325348 -0.803872 -0.591142 -0.065883
0.134258 0.026429 0.145045 0.067231 0.226354 0.971722
-0.264221 -0.294181 -0.108157 -0.048211 -0.987895 0.147443
-0.425554 -0.171588 -0.024749 -0.865573 -0.500780 0.001618
-0.260402 0.231394 0.194438 0.841416 -0.163582 0.515034
0.512109 -0.498084 0.258855 -0.861193 0.207653 0.463926
0.639745 0.413929 0.279737 0.135480 0.056031 -0.989195
0.666209 -0.380956 0.222751 0.236061 0.317203 0.918508
-0.034016 0.043662 -0.303590 -0.208437 0.580326 -0.787259
-0.304904 0.115828 0.186400 0.061780 -0.373709 0.925486
0.541354 -0.130508 -0.082221 0.097515 -0.949660 0.297718
-0.403875 0.280533 0.403098 0.281747 -0.751111 0.597036
0.168696 -0.250361 -0.039181 0.317066 -0.888215 0.332481
-0.481622 0.057145 -0.033227 -0.916123 -0.390841 -0.089225
0.076476 0.098940 0.105823 0.033605 0.560748 0.827304
0.632807 -0.473564 0.236331 0.931235 -0.335889 0.141348
0.471972 -0.161986 -0.139257 -0.008641 -0.880577 0.473825
0.405777 -0.490587 -0.304966 0.937672 -0.132238 0.321380
-0.211160 0.050098 -0.315260 0.151592 0.360768 -0.920253
0.760471 -0.269382 0.134988 0.500713 0.429422 -0.751587
0.531628 -0.057202 -0.236418 0.457150 0.124575 -0.880622
0.623123 0.224216 -0.049916 0.079894 0.788812 -0.609420
-0.332095 -0.214265 0.113624 -0.086406 -0.492328 0.866110
-0.738942 0.369864 0.272619 0.279946 0.525399 0.803484
0.143271 0.193081 -0.132976 -0.014340 0.933475 -0.358355
-0.240414 0.384268 0.471097 0.261788 -0.956936 0.125460
-0.257933 0.333506 -0.037866 0.241089 0.964082 -0.111458
-0.148753 0.087497 0.162878 0.278603 0.398269 0.873935
0.208500 0.172251 -0.166223 0.172389 0.703262 -0.689714
0.608916 -0.216687 0.107065 0.073689 -0.623399 -0.778424
-0.362762 -0.049975 -0.318356 -0.907367 0.054885 -0.416741
-0.392949 -0.206299 -0.200291 -0.521701 0.275100 -0.807557
0.289696 0.004839 -0.230371 0.328877 0.011610 -0.944301
0.128344 -0.228399 -0.179438 0.248039 -0.615285 -0.748266
-0.061502 -0.188665 -0.273175 0.084630 -0.651170 -0.754198
0.558163 -0.273396 -0.250469 0.840237 0.333349 -0.427644
-0.156519 -0.221565 -0.255637 0.086665 -0.648433 -0.756323
-0.353947 0.225582 0.290894 0.680397 -0.519070 0.517326
0.402639 0.211057 -0.136881 0.051703 0.990863 -0.124570
0.539467 0.193138 0.074212 -0.203845 0.707685 0.676483
0.694249 -0.197184 0.165621 0.295238 0.291325 0.909926
-0.493432 -0.521149 -0.527518 -0.613504 -0.044657 0.788428
0.267201 0.209919 -0.016718 0.121758 0.974220 0.189921
0.555331 -0.448977 0.251897 -0.527799 0.627330 0.572613
-0.266502 0.079170 0.182159 0.097166 0.059401 0.993494
-0.466253 -0.519385 -0.589783 0.135612 0.729603 -0.670290
-0.571192 0.132491 0.397074 -0.922590 -0.363335 0.129674
-0.350094 0.077500 -0.273806 -0.284378 0.479737 -0.830049
0.414004 -0.105113 0.132873 -0.472938 -0.470501 0.744955
0.352055 -0.127116 -0.168445 -0.252911 -0.961518 -0.107330
0.540297 0.250282 -0.014752 -0.071393 0.821875 -0.565177
0.132130 0.011370 -0.287666 0.287215 -0.008814 -0.957826
0.428354 0.236246 -0.014970 -0.025627 0.999113 -0.033407
0.561181 -0.438386 0.239520 -0.435696 0.898503 -0.053495
0.693486 0.542743 0.322315 0.309157 0.244137 -0.919140
-0.394367 -0.183720 0.100099 -0.896963 0.007491 0.442043
0.477121 -0.062261 0.179955 -0.056610 -0.069044 0.996006
0.615552 -0.194043 -0.056202 0.969554 -0.131572 -0.206527
-0.345263 0.331545 -0.067681 0.070800 0.686087 -0.724066
0.683118 -0.168079 0.135233 0.849733 -0.059860 -0.523803
0.394952 0.211628 0.042185 0.014247 0.895793 0.444243
0.307163 0.026169 0.124589 0.146978 0.138427 0.979406
-0.406155 -0.432509 -0.506677 0.049442 0.659644 -0.749950
0.003755 0.213436 -0.138872 0.185224 0.700030 -0.689674
-0.323562 0.170458 -0.212078 -0.384987 0.733966 -0.559534
0.582402 0.246045 -0.026233 -0.071393 0.821875 -0.565177
-0.136175 -0.256343 -0.212942 0.087833 -0.802426 -0.590252
-0.478041 0.305104 -0.037602 -0.577912 0.607098 -0.545390
0.508300 -0.133990 -0.067674 0.030839 -0.998365 0.048136
0.612290 0.518606 0.333594 -0.665593 0.500131 -0.553944
0.334352 0.089006 0.122860 -0.492826 0.297857 0.817559
-0.283557 0.063719 0.184751 0.097166 0.059401 0.993494
0.213751 -0.116672 -0.244931 0.463724 -0.419756 -0.780234
-0.557871 0.115755 0.448452 -0.432555 -0.900367 -0.047277
0.634097 0.202534 -0.051256 0.866773 0.226239 -0.444433
-0.473642 -0.072910 -0.123861 -0.890479 0.222131 -0.397121
0.355281 -0.425312 -0.305476 -0.619912 0.771173 -0.144918
0.019190 -0.156974 -0.292046 0.071025 -0.527485 -0.846590
0.432476 0.006347 -0.258527 0.113836 0.053664 -0.992049
-0.222585 -0.204422 -0.305070 0.723815 -0.634137 0.271960
-0.053085 0.247545 -0.119399 0.291071 0.928619 -0.230096
-0.180233 0.307847 -0.001760 0.446275 0.892185 -0.069610
-0.266761 0.231803 -0.181326 -0.034330 0.535426 -0.843884
0.340824 0.178824 -0.175347 -0.480119 0.876423 0.037002
-0.057506 -0.202106 -0.259605 0.200301 -0.785146 -0.586024
-0.609602 -0.554561 -0.059415 0.825989 -0.509819 -0.240470
-0.518503 0.167404 0.501049 0.880535 -0.152597 0.448746
0.573597 -0.430872 0.216789 -0.704424 0.705143 0.080994
-0.203539 0.338718 0.335397 0.745256 -0.600314 -0.290200
0.657325 0.047339 -0.142843 0.616029 0.158314 -0.771651
-0.312116 0.375875 0.025505 0.464940 0.728996 -0.502389
-0.603792 0.380628 0.148161 0.364254 0.452916 -0.813748
0.525082 -0.477409 0.259615 -0.657855 0.545898 0.518866
-0.364174 -0.103599 -0.298553 -0.858846 -0.378243 -0.345420
-0.307785 -0.288563 -0.071586 0.049050 -0.991538 0.120197
-0.414015 -0.172052 0.065662 -0.834795 0.101783 0.541071
-0.459999 0.443819 0.355625 -0.164036 0.648145 0.743640
-0.505148 0.109766 0.041930 -0.672006 -0.736156 0.080506
0.700497 0.471172 0.310098 0.575064 0.183089 -0.797358
0.467982 -0.141168 0.045344 0.039005 -0.997119 -0.065058
-0.535751 0.112904 0.452792 -0.191563 -0.525818 0.828745
-0.175138 0.231086 -0.175105 0.170010 0.782485 -0.599011
0.558718 -0.038761 -0.219746 0.457150 0.124575 -0.880622
0.290658 -0.097324 -0.229559 0.094044 -0.741826 -0.663966
0.627844 0.282809 0.012517 -0.387259 0.920717 0.048061
-0.598779 0.246746 0.308285 -0.985091 -0.123419 0.119845
0.315746 -0.526536 -0.337420 0.244755 -0.952629 -0.180534
0.572729 -0.494931 0.284003 -0.005458 0.206632 0.978404
-0.481572 0.194009 0.452783 0.725568 0.049636 0.686359
-0.379879 0.327549 0.370232 0.901886 -0.114025 0.416653
0.551314 -0.255948 -0.244469 0.691223 0.480389 -0.539849
0.528010 -0.506634 0.281625 -0.405285 0.288927 0.867332
-0.326739 0.358633 -0.035610 0.196548 0.813964 -0.546655
0.445956 -0.137165 -0.093576 0.030839 -0.998365 0.048136
0.064066 -0.124336 0.133437 0.018600 -0.435351 0.900069
-0.161535 -0.172040 0.111536 0.493492 -0.571911 0.655273
0.490902 -0.167827 -0.145032 0.420817 -0.551513 0.720241
-0.322589 -0.012499 -0.332572 -0.333041 0.123449 -0.934796
-0.234920 -0.098903 -0.366417 -0.036836 0.315661 -0.948157
-0.383127 0.314715 0.373750 0.901886 -0.114025 0.416653
0.475935 0.114485 0.143061 -0.005257 0.191222 0.981533
-0.680021 -0.497214 -0.058509 -0.465622 0.591786 0.658016
0.387210 -0.105222 -0.255362 -0.423366 -0.120958 -0.897848
-0.526755 0.323999 0.422325 -0.273588 0.374003 0.886156
-0.546024 0.405889 0.169562 -0.783681 0.582019 -0.217023
-0.518278 -0.360972 -0.015465 -0.558669 0.828932 -0.027566
0.612028 -0.083948 -0.023672 0.701304 -0.515831 -0.492027
-0.530654 0.119110 0.463932 0.001387 -0.970916 0.239415
0.599221 0.173441 -0.130571 0.389293 0.586922 -0.709911
-0.301496 0.054049 0.184610 0.000890 -0.018978 0.999819
0.672654 0.115563 0.097773 0.741846 0.221901 0.632790
0.417716 -0.142252 0.099668 -0.171322 -0.909756 -0.378143
-0.464855 -0.318335 -0.011746 -0.257546 0.559691 -0.787665
-0.458204 0.422349 0.063741 -0.427498 0.712354 -0.556594
0.803617 0.327372 0.174752 0.901730 0.394127 0.177613
-0.453102 0.127741 0.264733 0.729417 -0.664846 0.161032
-0.341646 -0.263904 -0.417538 -0.021803 0.393648 -0.919002
0.624044 0.424744 0.320549 -0.132408 -0.373254 0.918232
0.138240 0.176514 -0.175930 -0.014340 0.933475 -0.358355
0.603451 -0.138030 0.033351 0.387355 -0.740430 -0.549290
-0.505525 0.427779 0.355205 -0.275151 0.698532 0.660564
-0.184533 0.229047 -0.180436 0.170010 0.782485 -0.599011
-0.264792 0.385229 0.479389 -0.082946 -0.995344 0.049086
-0.462579 0.358466 0.434106 0.253370 0.451160 0.855721
-0.349979 0.433820 0.182703 0.635631 0.741994 0.213115
-0.049528 -0.171748 0.095452 -0.155196 -0.407507 0.899918
0.036887 -0.256735 -0.162912 0.176052 -0.879113 -0.442907
-0.028457 -0.284934 -0.032449 0.061924 -0.997725 -0.026629
0.555004 -0.531053 0.254723 0.350697 -0.934289 -0.064152
-0.313083 -0.324920 -0.376220 0.492487 -0.544080 0.679289
-0.643562 0.358421 0.234197 -0.041040 -0.981012 0.189555
0.371567 0.068017 -0.231725 -0.199741 0.194287 -0.960394
-0.458568 -0.476802 -0.499717 -0.772474 0.625783 0.108074
-0.429698 -0.004134 -0.182863 -0.922103 0.161617 -0.351577
-0.444458 0.376011 0.004569 -0.212234 0.668816 -0.712490
-0.478301 0.161078 -0.103323 -0.904290 -0.109297 -0.412690
-0.481696 0.145530 -0.091765 -0.904290 -0.109297 -0.412690
0.784442 0.337058 0.208798 0.532575 0.708944 0.462345
-0.465617 0.115395 -0.111713 -0.788318 -0.228655 -0.571202
-0.263260 0.220346 -0.188738 -0.034330 0.535426 -0.843884
0.106102 0.019499 0.148527 0.053323 0.229149 0.971930
-0.487623 0.450927 0.339459 -0.049301 0.977893 0.203211
-0.243784 0.120181 -0.267489 0.039640 0.490054 -0.870791
0.573898 -0.513318 0.208982 0.310126 -0.923179 -0.227075
-0.520161 0.138816 0.491462 0.316193 -0.392302 0.863783
-0.238200 -0.007493 -0.342291 0.151592 0.360768 -0.920253
0.182608 0.218230 -0.036551 -0.077606 0.866095 0.493818
-0.578541 0.210812 0.456608 -0.864447 0.423757 0.270482
-0.131079 0.234693 -0.157865 0.218374 0.696540 -0.683480
-0.084181 -0.279928 -0.011736 -0.063556 -0.859220 0.507642
0.240230 -0.230570 -0.124859 0.163119 0.200235 -0.966074
0.470990 -0.120108 -0.268410 0.098542 0.037509 -0.994426
0.468519 -0.004028 0.183344 -0.189303 0.107959 0.975966
-0.628940 0.335482 0.347237 -0.867895 0.218790 0.445970
0.585701 -0.121759 -0.115428 0.240993 -0.970289 0.021466
-0.269541 -0.139273 -0.378512 -0.036836 0.315661 -0.948157
-0.493326 0.009012 0.030258 -0.177522 -0.978448 0.105478
0.625708 0.081726 0.145490 0.560189 0.348093 0.751678
0.575529 -0.498938 0.284750 0.233291 0.205689 0.950404
-0.812875 0.387343 0.312966 -0.983572 -0.047467 -0.174163
-0.404739 -0.331944 -0.449566 -0.312990 0.397798 -0.862435
0.275198 0.117751 0.090673 -0.043439 0.529645 0.847106
0.497526 -0.042834 -0.252089 0.457150 0.124575 -0.880622
-0.405115 -0.413954 -0.445620 -0.409953 -0.372555 0.832551
0.421404 -0.113063 0.132549 -0.472938 -0.470501 0.744955
-0.410093 -0.211943 -0.005354 -0.952958 -0.152202 -0.262119
-0.271476 0.281352 -0.126469 -0.177445 0.719210 -0.671752
-0.172843 0.069161 -0.300402 0.154966 0.496083 -0.854334
-0.354028 -0.289486 0.082067 -0.130566 -0.135919 0.982079
-0.383246 0.364978 0.361533 0.697100 0.295940 0.653047
-0.384815 -0.494153 -0.486463 0.693451 0.033839 0.719709
-0.146077 -0.151310 0.116794 0.651887 -0.482791 0.584770
0.530759 -0.212188 -0.187671 0.218215 -0.077271 0.972837
-0.666188 0.396257 0.175138 0.030544 0.969258 -0.244145
-0.244925 -0.084559 0.165129 0.001611 -0.294139 0.955761
-0.394010 0.297840 0.401499 0.543896 -0.151684 0.825330
-0.340147 -0.286827 -0.346032 -0.431786 -0.221149 0.874445
0.622124 -0.007617 -0.177193 0.498993 0.212574 -0.840130
-0.020729 0.180382 0.063974 0.501133 0.426754 0.752826
0.538168 0.239282 -0.034324 -0.026719 0.944198 -0.328293
-0.745866 0.357368 0.122645 -0.167261 0.765829 -0.620910
-0.163059 -0.209845 -0.266434 0.086665 -0.648433 -0.756323
0.678460 -0.052334 0.132681 0.867232 0.120715 0.483049
0.552651 0.242642 -0.027424 -0.071393 0.821875 -0.565177
0.647121 -0.195974 0.099176 0.218711 -0.281595 -0.934275
-0.212892 0.129119 0.169404 0.269901 -0.031216 0.962382
0.547454 -0.023919 -0.223494 0.457150 0.124575 -0.880622
-0.272052 -0.287867 -0.068414 -0.048211 -0.987895 0.147443
0.010682 0.133896 -0.231977 0.112877 0.532124 -0.839109
0.044699 -0.270276 -0.132929 0.176052 -0.879113 -0.442907
-0.459662 0.374685 0.420695 0.019766 0.720158 0.693528
0.486969 -0.086181 -0.263678 0.503300 -0.032534 -0.863499
0.014123 -0.281870 -0.048217 0.061924 -0.997725 -0.026629
0.284104 -0.516335 -0.352381 -0.825108 -0.129564 0.549918
0.597004 -0.460349 0.267312 0.069113 0.444864 0.892927
-0.340622 0.430636 0.309297 0.568775 0.677232 -0.466746
0.389566 0.172390 -0.194354 0.187660 0.565370 -0.803206
0.573881 0.243879 -0.028306 -0.071393 0.821875 -0.565177
-0.382494 0.344746 0.371079 0.826645 0.281713 0.487131
-0.338564 0.404300 0.255573 0.570013 0.797032 0.199562
0.167260 -0.053176 0.157330 0.155408 -0.392941 0.906337
0.211150 0.051554 -0.246814 0.339567 0.134296 -0.930945
-0.453962 -0.422014 -0.015100 0.863193 -0.473228 -0.175937
-0.205102 -0.072911 0.170247 -0.030487 -0.345371 0.937971
0.092952 0.152102 -0.216299 0.111547 0.819678 -0.561859
-0.251569 0.336387 0.145392 0.872547 0.466519 0.144987
-0.544817 0.216132 0.106409 -0.939884 -0.331021 -0.083919
0.564117 -0.167111 0.200382 -0.299791 -0.145202 0.942890
0.696286 -0.306947 0.136614 -0.246370 -0.299365 -0.921782
0.648252 -0.066648 0.158159 0.398473 0.076696 0.913968
-0.477147 0.053958 -0.065209 -0.916123 -0.390841 -0.089225
-0.498785 -0.410910 -0.059656 0.322115 -0.351994 -0.878830
-0.247368 0.426892 0.426107 0.777279 0.626226 0.060646
0.428708 -0.191142 -0.250150 -0.334200 -0.382845 -0.861243
0.608534 -0.235014 0.130195 -0.387262 -0.797009 -0.463470
-0.588389 0.228098 0.264761 -0.964318 -0.232404 -0.126807
-0.370644 0.389371 -0.009077 0.464940 0.728996 -0.502389
-0.036335 -0.006410 0.144276 -0.285721 -0.056310 0.956657
0.718271 0.310231 0.060351 0.090046 -0.106667 0.990209
-0.007951 0.065962 0.131411 -0.020795 0.469737 0.882561
-0.482003 0.192688 -0.106575 -0.851015 -0.174013 -0.495473
-0.392294 0.315916 0.393239 0.619685 0.536960 0.572419
0.331850 -0.116618 -0.202838 -0.109133 -0.904497 -0.412281
-0.243216 -0.259067 0.080252 0.070091 -0.239169 0.968445
-0.379969 0.141815 -0.200558 -0.650201 0.436406 -0.621923
-0.043193 0.136378 0.097188 0.371315 0.301678 0.878132
-0.373988 -0.313636 -0.452337 0.083571 0.650200 -0.755153
-0.355645 -0.087790 -0.326662 -0.564002 -0.033880 -0.825078
0.668444 0.108263 -0.113336 0.836998 0.319459 -0.444275
-0.584790 0.396845 0.175901 -0.077436 0.834322 -0.545811
0.627178 0.505950 0.308355 -0.433654 0.456316 -0.776994
0.145692 0.029314 0.142563 0.194513 0.345870 0.917899
0.603087 0.069098 -0.181678 0.616029 0.158314 -0.771651
0.366297 -0.134072 -0.151009 -0.783668 -0.609247 0.121176
-0.351201 -0.290019 -0.429345 0.133493 0.631878 -0.763485
0.626287 -0.010242 0.163116 0.438105 0.148379 0.886593
-0.036896 0.185151 0.072032 0.501133 0.426754 0.752826
-0.510217 0.165054 0.489896 -0.775046 0.073083 0.627665
-0.459947 0.034371 -0.089158 -0.828989 -0.285089 -0.481147
-0.665676 0.423603 0.239681 -0.068799 0.994316 -0.081260
-0.012600 0.062291 0.132659 -0.083644 0.299333 0.950475
-0.531474 0.095179 0.429050 0.260749 -0.922356 0.285076
0.166028 0.032182 -0.277692 0.287215 -0.008814 -0.957826
-0.353734 0.415771 0.243752 0.426629 0.888473 0.169123
-0.084719 0.198972 0.095498 0.447628 0.408221 0.795603
-0.377088 -0.257483 0.082510 -0.160071 -0.109694 0.980992
0.503538 0.226117 -0.069368 -0.026719 0.944198 -0.328293
0.756198 0.334438 0.067290 0.167503 0.963038 -0.210951
0.591959 -0.095796 0.183594 0.194205 0.150570 0.969336
-0.319493 0.355153 0.342972 -0.225563 -0.431989 0.873216
0.005631 -0.268015 -0.153917 0.190018 -0.875074 -0.445127
-0.506604 -0.352863 -0.014976 -0.628761 0.739654 -0.239943
0.592453 -0.194367 0.203340 -0.160650 -0.344312 0.925009
-0.486083 0.086725 0.214106 0.437054 -0.881167 0.180358
0.601184 -0.075110 0.180440 0.470221 -0.126816 0.873390
-0.467870 0.064577 0.149352 -0.135396 -0.753229 0.643672
0.003523 -0.156440 0.110965 -0.139288 -0.392707 0.909054
-0.042678 -0.290285 -0.118053 0.136502 -0.988755 0.061082
0.529269 -0.541275 0.264884 0.359282 -0.932781 -0.028908
0.559412 -0.316013 -0.248842 0.548191 0.017480 -0.836170
-0.390338 0.121215 -0.197886 -0.730594 0.286689 -0.619711
-0.380169 -0.261027 -0.384054 -0.947859 0.311635 -0.066692
-0.147934 -0.214875 -0.260388 0.086665 -0.648433 -0.756323
0.562726 -0.172724 -0.024274 -0.308012 -0.032676 0.950821
0.095693 -0.248062 -0.156750 0.176052 -0.879113 -0.442907
-0.366243 -0.102505 -0.294605 -0.858846 -0.378243 -0.345420
-0.185347 -0.038760 -0.349536 0.263340 0.019609 -0.964504
0.316755 -0.194217 -0.084686 0.667421 -0.377747 -0.641760
-0.239099 -0.280237 0.021116 0.685772 0.043417 -0.726520
-0.439180 0.268769 0.411874 0.452626 -0.142806 0.880191
0.271885 0.218792 -0.044443 -0.245956 0.902358 0.353916
0.594752 0.197498 -0.100496 0.165905 0.841385 -0.514341
-0.265101 0.327607 0.281168 0.081244 -0.716547 -0.692791
0.624183 0.216921 -0.059219 0.079894 0.788812 -0.609420
0.636443 -0.115371 0.022949 0.499224 -0.676975 -0.540815
-0.330979 0.117262 0.201571 0.218723 -0.563661 0.796522
-0.450287 0.253209 0.415519 0.536581 -0.031782 0.843250
-0.151798 0.009259 0.175466 0.275822 -0.012047 0.961133
0.558511 -0.252080 -0.194952 -0.165438 -0.046133 0.985141
-0.090913 -0.222602 -0.244663 0.683452 -0.609369 -0.401950
-0.478504 0.052429 -0.050473 -0.974371 0.135954 -0.179214
-0.054379 -0.262120 -0.191474 0.221478 -0.849070 -0.479613
0.554812 0.192282 -0.122383 0.165588 0.849566 -0.500818
0.199987 0.150620 -0.190407 0.172389 0.703262 -0.689714
0.403765 -0.188189 -0.224317 -0.597048 -0.774978 0.207226
-0.180787 -0.208617 -0.270307 0.120539 -0.664170 -0.737800
-0.444997 -0.138041 -0.159104 -0.531053 -0.058089 -0.845345
-0.363944 0.105998 0.215460 -0.082915 -0.551541 0.830017
0.672710 -0.018774 -0.078170 0.993546 -0.099682 0.054136
0.617477 0.176462 -0.118133 0.379741 0.594729 -0.708586
-0.302534 -0.069101 -0.351341 -0.147903 0.047125 -0.987879
0.153596 -0.147903 -0.261962 0.442820 -0.681386 -0.582772
-0.329419 -0.366156 -0.437963 0.640279 -0.385755 -0.664256
-0.358312 -0.277004 -0.419240 -0.493398 0.329202 -0.805099
0.500413 -0.140797 0.057873 -0.256714 -0.836648 -0.483858
0.696624 0.064755 0.081734 0.992684 0.120685 -0.003715
0.003049 -0.171630 0.104559 -0.310634 -0.192366 0.930861
-0.435403 -0.169187 -0.163449 -0.305016 0.182350 -0.934726
-0.512360 0.215427 -0.071879 -0.215570 -0.950577 -0.223457
0.591195 0.240780 0.031024 -0.315010 0.259772 0.912846
0.374026 0.063788 -0.234052 -0.431853 0.306287 -0.848346
-0.512819 0.173303 0.493187 0.278090 -0.510911 0.813410
0.436887 0.209323 0.044798 0.048074 0.885750 0.461667
-0.080877 0.155061 -0.230555 0.039020 0.848664 -0.527491
-0.143663 0.289526 -0.062474 0.294634 0.954617 -0.043548
-0.338762 0.341252 0.306313 0.248282 -0.940440 0.232225
-0.530617 0.174320 0.122845 -0.896747 -0.427926 0.112798
0.181908 -0.085587 -0.262188 0.330635 -0.067441 -0.941346
-0.371463 0.082437 -0.248470 -0.743766 0.434673 -0.507811
0.655927 -0.056534 -0.120267 0.866978 -0.497207 0.033689
0.601712 -0.171713 -0.030077 0.957620 0.124417 0.259777
-0.263550 0.338047 -0.010506 0.239212 0.964850 -0.108821
0.065996 -0.025785 0.158691 -0.092293 0.123331 0.988064
-0.141660 -0.194241 0.073160 -0.041338 -0.453821 0.890133
0.618561 0.169228 -0.123625 0.379741 0.594729 -0.708586
0.416268 0.235905 -0.015889 -0.025627 0.999113 -0.033407
0.017623 -0.281905 -0.038756 0.061924 -0.997725 -0.026629
0.111121 -0.267612 -0.071039 0.183890 -0.981248 0.057772
-0.128918 0.286200 -0.043765 0.423477 0.904431 -0.051693
0.645909 0.173383 -0.098139 0.725503 0.630843 -0.275104
-0.189487 -0.054761 -0.350991 0.263340 0.019609 -0.964504
0.076776 0.182597 0.034107 0.156103 0.614654 0.773196
0.255528 -0.227431 -0.069134 0.294667 -0.760574 0.578532
0.014940 0.169591 -0.200089 0.039020 0.848664 -0.527491
-0.312094 0.313357 0.251433 0.436267 -0.789162 0.432314
0.683147 0.067780 -0.059369 0.958887 -0.253032 -0.128496
-0.361572 0.172650 0.259240 0.503960 -0.586133 0.634407
0.474219 -0.193222 -0.156994 -0.015994 -0.480230 0.876997
-0.301157 0.385137 0.265941 0.860826 0.461275 -0.214951
-0.059670 0.254654 0.003132 0.410991 0.884061 0.222539
0.428724 -0.043740 0.161408 -0.489255 -0.255981 0.833729
0.564904 -0.140419 -0.140946 0.704419 -0.482393 0.520663
0.691934 -0.008988 0.103026 0.863505 0.053902 0.501452
-0.786208 0.351111 0.253337 -0.378325 -0.828365 -0.413136
-0.517272 0.316606 0.428762 -0.374361 0.318959 0.870700
-0.700832 0.379082 0.161264 -0.364524 0.884851 0.290104
-0.027319 -0.029033 0.145637 -0.285721 -0.056310 0.956657
0.565090 -0.041259 -0.216792 0.457150 0.124575 -0.880622
-0.535723 0.413439 0.355273 -0.392154 0.661997 0.638730
0.033163 -0.064870 0.155242 -0.022409 -0.352892 0.935395
-0.432185 -0.272154 0.060631 -0.757121 0.403150 0.514040
-0.566713 0.176276 0.263921 -0.818151 -0.527560 -0.228711
0.525654 -0.526294 0.214258 -0.394964 0.010492 -0.918637
-0.404977 -0.246706 -0.178739 -0.395350 -0.798816 0.453421
-0.662035 0.420054 0.248820 -0.189085 0.930216 0.314555
0.574074 -0.225855 -0.076013 -0.750763 -0.504627 -0.426271
-0.259441 -0.243186 -0.324419 0.413245 -0.734815 0.537844
-0.521449 0.232836 0.463057 0.074739 0.384618 0.920045
0.585610 -0.287756 -0.225673 0.731905 0.197736 -0.652086
-0.138546 -0.288096 -0.033902 -0.175151 -0.785944 0.592971
-0.120492 0.233999 0.093515 0.510504 0.635085 0.579701
0.555456 0.013498 0.178474 -0.135012 0.153145 0.978937
0.149773 -0.150166 -0.262221 0.442820 -0.681386 -0.582772
-0.372530 0.377884 0.367710 -0.118871 -0.540464 0.832928
-0.263500 0.432545 0.412855 0.242662 0.919247 -0.310000
0.508782 -0.235017 -0.250925 -0.137786 0.208008 -0.968374
-0.502257 0.420412 0.104516 -0.650772 0.706486 -0.278162
0.499459 -0.103092 -0.253357 0.664002 0.104866 -0.740341
-0.223309 -0.296795 -0.093003 -0.124313 -0.982532 0.138481
0.446443 -0.427486 -0.262079 0.346217 -0.884131 0.313760
-0.203014 0.314692 0.057842 0.472755 0.803220 0.362409
-0.197728 0.228347 0.137246 0.293755 0.382710 0.875923
-0.166451 -0.198299 -0.277253 0.120539 -0.664170 -0.737800
0.095727 0.081693 -0.269444 0.171932 0.520814 -0.836177
0.279712 0.094785 0.106677 -0.244879 0.610916 0.752872
-0.355733 0.405386 0.382616 -0.338922 0.152808 0.928322
0.702183 -0.021154 0.075781 0.994235 -0.094922 0.049867
0.673025 -0.142873 0.110078 0.934783 -0.043323 -0.352567
-0.299602 0.132937 0.195506 0.573458 -0.480786 0.663318
-0.262226 0.347640 0.159181 0.793373 0.600841 0.097724
0.029445 -0.280808 -0.052375 0.061924 -0.997725 -0.026629
0.377745 0.002158 0.139516 -0.497203 0.105532 0.861192
-0.042846 -0.033030 -0.311268 0.028783 -0.129614 -0.991147
0.112425 -0.158526 0.116173 0.049388 -0.389805 0.919572
0.002167 0.073452 -0.290964 0.252709 0.405755 -0.878352
0.684996 -0.079481 0.051494 0.949641 -0.301366 -0.085792
-0.336639 -0.121128 0.155414 -0.154250 -0.303927 0.940125
-0.407395 -0.535505 -0.509069 0.667948 -0.412681 0.619305
0.702503 -0.371580 0.181818 0.731695 -0.676378 0.084473
0.432326 0.191057 0.080318 0.048074 0.885750 0.461667
0.141873 0.130363 -0.230499 0.334843 0.721423 -0.606159
0.071776 0.224001 -0.064476 0.425773 0.799119 -0.424414
-0.466305 0.458980 0.302717 -0.396814 0.913761 0.087062
-0.445309 -0.020417 0.041406 -0.794356 -0.558491 0.238928
0.703068 0.264643 0.030907 -0.113661 -0.698606 0.706421
-0.324049 -0.225555 -0.249341 -0.413469 -0.577732 -0.703753
-0.320830 -0.286595 -0.052237 -0.106449 -0.991347 0.076815
0.583371 -0.146727 0.036416 -0.100933 -0.792647 -0.601268
-0.450752 0.294037 0.424583 0.306772 -0.692980 0.652433
-0.488701 -0.551173 -0.574025 0.095685 -0.851437 -0.515655
-0.467228 -0.540273 -0.508449 -0.207707 -0.384398 0.899498
-0.558198 0.130991 0.336774 -0.876172 -0.291254 -0.384049
-0.443573 -0.015822 0.057920 -0.794356 -0.558491 0.238928
-0.471542 -0.135896 -0.138813 -0.923045 -0.354351 -0.149744
-0.597201 0.278551 0.384755 -0.922313 -0.232192 0.308910
0.669836 0.422708 0.282882 -0.395277 0.242729 -0.885911
-0.667017 0.345260 0.108355 0.145449 0.304668 -0.941288
-0.206112 -0.341656 -0.197649 -0.011775 -0.993995 -0.108791
-0.222155 0.149042 -0.249646 0.034651 0.647594 -0.761197
0.372699 -0.433129 -0.326323 0.266401 0.675488 -0.687566
-0.555243 0.175038 0.231158 -0.703807 -0.674662 -0.222456
-0.461179 0.202443 -0.124533 -0.520771 0.253207 -0.815282
0.615608 -0.447477 0.255255 0.160301 0.533470 0.830490
-0.347000 0.196266 0.256320 0.880319 -0.473118 0.034603
0.661726 0.454634 0.291960 -0.224044 0.058514 -0.972821
0.442411 -0.097019 0.155901 -0.537191 -0.215254 0.815531
0.536980 -0.099778 -0.232179 0.464627 -0.273453 -0.842226
0.602413 -0.105301 -0.100965 0.653734 -0.742628 0.145380
0.153939 0.008606 0.147835 0.067231 0.226354 0.971722
0.566801 -0.213641 -0.077662 -0.750763 -0.504627 -0.426271
-0.378532 0.026250 -0.267147 -0.904675 0.191033 -0.380881
-0.568390 0.436768 0.218183 -0.010835 0.741138 -0.671265
0.657745 0.001505 -0.122620 0.923100 0.298127 -0.242915
-0.436154 0.460100 0.288323 0.137345 0.985042 -0.104060
-0.296676 0.019666 0.177288 0.148344 -0.164756 0.975115
-0.338065 0.459204 0.566025 0.589170 0.806170 -0.054489
0.231348 -0.046515 -0.249246 0.316150 -0.103426 -0.943055
-0.376577 -0.363715 -0.465808 0.375022 0.249539 -0.892798
-0.470525 -0.095636 -0.138049 -0.635758 0.258118 -0.727452
-0.395832 -0.532934 -0.539542 0.752562 -0.590772 -0.290928
-0.323166 0.412965 0.095895 0.569918 0.782784 -0.249885
-0.414985 0.427082 0.063690 0.173616 0.894225 -0.412576
-0.095623 -0.304826 -0.154713 0.484261 -0.873307 0.053163
-0.251733 0.238646 0.182962 0.746334 0.007290 0.665531
-0.412345 -0.195023 -0.046012 -0.839747 -0.437751 0.321246
-0.512037 0.076972 0.197874 -0.109427 -0.986929 0.118311
0.636580 -0.080351 -0.127156 0.653734 -0.742628 0.145380
-0.466459 0.215246 -0.115275 -0.590225 0.343436 -0.730538
-0.341423 -0.280111 -0.154273 -0.514380 -0.815973 0.263820
-0.335388 0.434169 0.573872 -0.150977 -0.690202 0.707691
-0.337496 -0.285087 -0.344283 -0.431786 -0.221149 0.874445
-0.354737 0.414321 0.253900 0.426629 0.888473 0.169123
0.605734 -0.102365 -0.100902 0.653734 -0.742628 0.145380
0.415301 0.091847 0.149223 -0.091545 0.038287 0.995065
0.071122 -0.274106 -0.103293 0.155238 -0.987861 -0.005612
-0.462781 0.129276 0.344048 0.511455 -0.852772 0.105801
-0.715795 0.393486 0.186048 -0.186800 0.465242 -0.865249
-0.410118 -0.205053 -0.092742 -0.871045 -0.457726 -0.178233
-0.373504 -0.219168 0.107531 0.070208 -0.543722 0.836324
0.260102 -0.153522 0.095861 0.119549 -0.155315 0.980604
0.058504 -0.089104 -0.300286 0.073565 -0.092521 -0.992989
0.612348 -0.443172 0.253119 0.160301 0.533470 0.830490
-0.474050 -0.503362 -0.511428 -0.613504 -0.044657 0.788428
-0.205656 -0.235037 -0.250699 0.125981 -0.664106 -0.736948
0.287329 -0.515468 -0.365471 -0.789887 0.582870 -0.190631
-0.395253 -0.237996 -0.070695 -0.820788 -0.525259 0.224523
-0.320783 -0.213230 -0.261365 -0.423418 -0.569738 -0.704355
-0.467428 0.131048 0.395499 0.444111 -0.892427 -0.079620
0.399983 -0.169891 -0.176562 -0.636217 -0.556535 0.534318
-0.566836 -0.424708 -0.014362 -0.725152 0.184406 0.663437
0.420478 -0.143214 -0.065523 0.142486 -0.982984 -0.115932
0.219079 -0.225127 -0.022951 0.346383 -0.885073 0.310908
-0.387807 -0.502595 -0.543286 0.877192 0.378683 -0.295184
0.408561 -0.141053 0.081251 -0.048275 -0.995583 0.080519
-0.344108 0.003322 -0.307221 -0.386043 0.475469 -0.790506
-0.380019 0.442474 0.111766 0.173616 0.894225 -0.412576
-0.495692 0.026100 -0.015130 -0.887799 0.301300 -0.347895
0.531860 -0.344109 -0.211259 0.017199 -0.513726 0.857782
0.677821 0.095483 0.098757 0.741846 0.221901 0.632790
-0.430949 0.425002 0.052743 0.136281 0.910105 -0.391326
-0.300011 0.384006 0.268101 0.860826 0.461275 -0.214951
-0.511496 0.098998 0.340212 -0.457992 -0.802590 0.382221
0.428558 -0.142389 0.128121 -0.351531 -0.634572 0.688291
0.315848 -0.131631 -0.160634 0.125307 -0.863089 -0.489261
-0.496363 0.132509 0.450719 0.342779 -0.882148 -0.322981
-0.601948 0.290822 0.386053 -0.810021 -0.476222 0.342167
-0.482586 -0.431205 0.007880 0.291338 -0.911217 0.291214
-0.376915 -0.077906 0.139971 -0.775257 -0.186777 0.603400
-0.305318 -0.212703 -0.403501 -0.110248 0.235929 -0.965496
-0.490525 -0.548764 -0.524234 -0.452034 -0.521793 0.723462
-0.234043 -0.033800 -0.351656 0.104512 0.014511 -0.994418
-0.522318 0.215962 -0.056955 -0.878884 0.110911 -0.463964
0.427257 -0.153466 -0.258375 -0.082443 0.236073 -0.968232
0.467343 -0.274694 -0.218871 -0.833170 -0.433218 -0.343729
0.326223 -0.057840 -0.226111 -0.200269 -0.118897 -0.972500
-0.103194 0.167532 -0.218662 0.253976 0.663344 -0.703897
-0.306245 0.394101 0.198145 0.684544 0.710042 0.165048
0.183555 -0.053262 0.151633 0.461506 0.048240 0.885824
0.101441 -0.247952 -0.155336 0.086998 -0.839924 -0.535686
-0.459381 -0.484512 -0.500136 -0.554499 0.012946 0.832083
-0.501441 0.160932 0.494835 -0.145032 -0.066904 0.987162
0.162538 0.171213 0.028195 -0.034608 0.798080 0.601557
0.523636 -0.133831 -0.074199 0.030839 -0.998365 0.048136
-0.412743 -0.400164 -0.478117 -0.463878 0.447895 -0.764335
-0.341962 -0.101393 -0.335457 -0.564002 -0.033880 -0.825078
0.605319 -0.214855 -0.039808 0.647324 -0.213987 0.731561
-0.133665 -0.057154 -0.326781 0.694339 -0.108311 -0.711451
0.552833 -0.355269 -0.224678 0.685045 -0.687296 -0.241530
0.528801 -0.193712 -0.185348 0.098509 -0.215705 0.971477
-0.316437 0.436746 0.383876 0.242662 0.919247 -0.310000
0.673393 0.417443 0.279853 -0.395277 0.242729 -0.885911
0.328512 -0.037920 -0.227140 -0.345504 0.137734 -0.928255
0.338587 0.077207 -0.223007 -0.199741 0.194287 -0.960394
0.561177 -0.146776 -0.204190 0.664002 0.104866 -0.740341
0.351193 0.166391 -0.200820 -0.612822 0.413170 -0.673602
0.540312 -0.067436 0.181736 0.072754 -0.033492 0.996787
0.301403 0.028037 -0.226009 0.328877 0.011610 -0.944301
-0.319231 0.254170 0.247876 0.936459 0.181557 -0.300135
0.733001 0.334435 0.214349 -0.422888 0.738084 -0.525736
-0.186824 0.086699 0.169515 -0.053636 0.291369 0.955106
-0.561098 0.111106 0.386461 -0.252587 -0.885753 -0.389412
-0.545047 0.222006 0.085809 -0.939884 -0.331021 -0.083919
-0.514343 0.129022 0.059461 -0.907583 -0.417676 0.042881
0.158480 -0.000314 -0.278801 0.315981 -0.105558 -0.942875
0.648245 0.252688 -0.021096 -0.123020 0.220599 -0.967575
-0.082730 -0.224858 0.065397 -0.133529 -0.669875 0.730368
-0.450863 0.105301 0.218467 0.428948 -0.867725 0.251111
-0.620867 -0.563890 -0.047802 0.548459 -0.433877 0.714803
-0.374645 -0.437054 -0.477601 0.995463 -0.093491 -0.017672
0.106287 0.147760 0.067731 0.045492 0.696662 0.715955
0.575344 -0.290044 -0.234541 0.785649 0.415231 -0.458627
-0.150778 -0.090905 -0.339861 0.390350 -0.021836 -0.920407
0.660290 -0.193827 0.109514 0.615287 -0.201633 -0.762080
-0.569020 0.163549 0.339248 -0.892509 -0.242971 -0.379990
-0.136644 -0.275693 -0.186694 0.087152 -0.802854 -0.589772
-0.254034 0.161373 0.177812 0.709901 -0.117618 0.694411
-0.258820 0.339966 0.168310 0.834393 0.518116 0.188001
-0.422910 -0.383198 -0.020937 0.525349 -0.738332 -0.422935
-0.377645 -0.468498 -0.488875 0.453284 -0.470117 0.757314
-0.299662 0.314379 -0.079488 0.070800 0.686087 -0.724066
-0.527052 0.080326 0.276451 -0.923484 -0.130090 0.360908
0.462843 -0.129936 0.149171 -0.527642 -0.503132 0.684436
-0.496116 0.330382 0.431914 -0.695222 0.477534 0.537241
-0.292975 0.352547 0.242582 0.814671 0.482995 -0.320978
-0.218670 0.191358 0.156476 0.168963 0.189979 0.967140
-0.655759 0.358906 0.234069 -0.041040 -0.981012 0.189555
-0.400135 -0.445864 -0.518352 -0.026522 0.666689 -0.744864
0.633808 0.127415 0.120389 0.230543 0.809382 0.540140
0.618239 0.502572 0.311359 -0.433654 0.456316 -0.776994
-0.463842 0.282323 -0.076727 -0.325276 0.677904 -0.659273
0.683827 0.403626 0.315847 0.278250 -0.332459 0.901137
-0.000352 -0.245357 0.052355 -0.000517 -0.888940 0.458023
-0.598380 0.398086 0.325350 -0.521746 0.671909 0.525660
-0.414524 0.135752 0.246889 -0.188844 -0.475615 0.859144
0.043858 0.185690 -0.171336 0.185600 0.862097 -0.471530
-0.377153 0.039276 -0.263892 -0.904675 0.191033 -0.380881
0.206881 -0.221870 -0.146205 0.563104 -0.525854 -0.637489
0.465928 -0.140070 -0.269665 0.098542 0.037509 -0.994426
0.240403 0.030229 0.133536 0.134160 0.145368 0.980239
-0.401986 -0.321232 -0.411159 -0.823634 0.567011 0.011184
0.408976 -0.474134 -0.334177 0.892848 -0.355760 -0.276147
-0.004251 0.165726 -0.207727 0.039020 0.848664 -0.527491
0.655028 0.044619 0.134077 0.591234 0.145134 0.793334
-0.119537 0.249949 -0.135170 0.187137 0.702143 -0.687005
-0.472482 0.074685 -0.085943 -0.788318 -0.228655 -0.571202
-0.023275 -0.185720 -0.269858 0.200301 -0.785146 -0.586024
-0.229550 0.188360 0.158966 0.168963 0.189979 0.967140
-0.115881 -0.045074 0.158491 0.259084 -0.235762 0.936639
0.568095 -0.135761 -0.066457 -0.707096 0.170739 -0.686194
-0.798455 0.367437 0.246454 -0.741777 -0.560470 -0.368295
0.085834 -0.085820 0.149768 -0.186685 -0.275653 0.942955
-0.408835 0.159072 0.302803 0.435588 -0.899733 -0.027274
-0.437370 0.362829 -0.013503 -0.390930 0.800481 -0.454318
-0.125664 0.236504 0.095327 0.510504 0.635085 0.579701
-0.320162 -0.303364 -0.196860 -0.290272 -0.862728 0.414057
0.218909 -0.209895 0.021037 0.317066 -0.888215 0.332481
-0.027755 0.245735 -0.055986 0.257558 0.957089 0.132831
0.400695 0.135695 0.145811 -0.203662 0.091123 0.974791
-0.423880 -0.200055 0.050943 -0.852704 0.000345 0.522394
-0.471365 0.231534 -0.103311 -0.567689 0.397826 -0.720739
0.236296 -0.058242 0.125894 0.403144 -0.010253 0.915079
-0.360500 0.430339 0.216796 0.514288 0.753699 0.409202
0.619136 0.529384 0.354604 -0.825406 0.564516 -0.005141
0.732525 -0.235721 0.137784 0.114203 0.070727 -0.990937
-0.139294 0.260387 0.081164 0.510504 0.635085 0.579701
0.239420 -0.158737 -0.183024 0.452565 -0.708400 -0.541622
0.541941 -0.285254 -0.191285 0.267796 0.031569 0.962958
-0.270324 -0.175366 0.137723 0.132181 -0.340421 0.930936
-0.293506 0.362850 0.004102 0.583260 0.744280 -0.325354
0.506738 0.205402 -0.116023 0.165588 0.849566 -0.500818
0.561455 -0.324134 -0.196168 -0.280169 -0.510402 0.813016
0.161645 0.175346 -0.173538 0.119082 0.756673 -0.642858
0.688748 0.098893 0.005298 0.806463 0.378068 -0.454623
-0.569935 0.224387 0.191852 -0.820733 -0.140710 -0.553713
-0.509481 0.037893 0.036900 -0.882581 0.373097 -0.286093
0.659390 0.018378 -0.124578 0.948035 -0.282375 -0.146609
-0.220940 -0.332432 -0.170493 -0.368558 -0.787681 0.493685
-0.411023 0.291287 0.410222 0.152678 0.345551 0.925896
0.689355 -0.005650 0.025434 0.911798 -0.209321 -0.353284
0.481733 -0.310268 -0.250032 -0.435059 0.596065 -0.674856
0.634255 0.110166 -0.141431 0.583853 0.276394 -0.763362
0.250714 -0.038175 -0.244187 0.269602 -0.105863 -0.957135
-0.314947 0.425197 0.396620 -0.538149 0.335443 0.773223
-0.490799 0.019378 -0.033437 -0.887799 0.301300 -0.347895
0.132029 0.224838 -0.050371 -0.006884 0.980081 -0.198478
-0.274470 -0.290993 0.010674 0.546224 -0.758531 -0.355345
-0.286811 0.387387 0.130365 0.727939 0.678625 0.097840
0.618348 0.502438 0.311220 -0.433654 0.456316 -0.776994
0.458021 0.059050 0.159936 0.020626 0.533042 0.845837
0.062523 0.227110 -0.031790 0.226323 0.906086 0.357471
0.685138 -0.108058 0.120130 0.978106 -0.200397 0.056124
-0.545536 0.299368 0.427156 -0.273867 0.493075 0.825757
-0.332593 -0.281063 -0.114906 -0.377697 -0.876955 -0.297143
-0.248648 -0.172653 -0.386430 0.402203 0.035455 -0.914864
0.358855 -0.458626 -0.283425 -0.288493 0.302320 0.908501
-0.291804 -0.303204 -0.222546 0.051217 0.221346 -0.973850
0.632556 -0.202312 0.098457 0.079862 -0.530942 -0.843637
0.007735 -0.013431 0.149880 -0.028760 0.182862 0.982718
0.584575 -0.109444 0.187193 0.194205 0.150570 0.969336
-0.560554 0.158382 0.307267 -0.859177 -0.509221 -0.050080
0.228574 -0.210494 0.008657 0.351580 -0.885681 0.303252
-0.257262 0.084739 -0.294730 -0.239614 0.492292 -0.836800
0.092921 -0.049543 0.162456 -0.022409 -0.352892 0.935395
0.663541 -0.043839 -0.007865 0.678926 -0.343122 -0.649097
0.642983 0.289040 0.015125 -0.387259 0.920717 0.048061
-0.316452 0.422336 0.326576 0.567880 0.675571 -0.470230
-0.287911 0.396702 0.490980 -0.682207 -0.714335 -0.155944
-0.531729 0.420108 0.176700 -0.546557 0.798315 -0.252919
-0.512946 0.021769 0.039607 -0.979647 -0.053720 -0.193404
0.096620 0.145127 0.070907 0.045492 0.696662 0.715955
-0.435915 0.422647 0.379391 -0.164036 0.648145 0.743640
-0.492440 -0.517121 -0.568150 -0.914867 0.396593 -0.075709
0.402376 -0.143567 0.046463 -0.048275 -0.995583 0.080519
0.458267 -0.419703 -0.254977 -0.014063 -0.487036 0.873269
0.598478 -0.199858 0.093687 0.079862 -0.530942 -0.843637
0.134368 0.060113 -0.281640 0.053211 0.479756 -0.875787
-0.416698 0.302221 -0.073960 -0.297943 0.601882 -0.740924
0.530638 -0.537761 0.293380 -0.410220 0.292411 0.863838
0.536362 -0.162735 0.076734 -0.256714 -0.836648 -0.483858
0.484310 -0.338137 -0.270688 0.006005 0.097752 -0.995193
-0.167023 -0.135397 -0.358610 0.265584 0.245097 -0.932412
-0.263264 -0.277831 -0.003641 0.245622 -0.960509 -0.130739
-0.734324 0.383903 0.187745 -0.500222 0.482658 -0.718901
-0.331370 -0.049946 -0.339708 -0.326248 0.378263 -0.866302
-0.454668 -0.331754 -0.024612 -0.257546 0.559691 -0.787665
-0.384121 0.341000 0.377220 0.859105 0.321390 0.398306
0.339611 0.030117 0.130790 -0.356178 -0.072538 0.931598
-0.392716 -0.004065 0.138059 -0.827342 0.213157 0.519682
0.665906 0.137106 0.090566 0.719954 0.423753 0.549636
-0.585994 0.179769 0.376852 -0.991410 -0.054613 -0.118841
0.247502 0.129094 -0.200480 0.172389 0.703262 -0.689714
0.710893 0.331168 0.274382 0.203740 -0.756848 0.621024
-0.504494 -0.552025 -0.537376 -0.958212 0.130493 0.254560
-0.524463 0.075519 0.255868 0.145572 -0.989031 -0.025017
0.406834 -0.030106 0.152749 -0.489255 -0.255981 0.833729
-0.187316 0.291240 -0.104039 0.089791 0.806753 -0.584026
-0.439415 -0.317438 0.055279 -0.575776 -0.243358 0.780550
-0.331217 -0.246150 -0.410181 -0.021803 0.393648 -0.919002
-0.076602 0.210746 0.084645 0.467273 0.621861 0.628447
