ply
format ascii 1.0
element vertex 838
property float x
property float y
property float z
property float nx
property float ny
property float nz
end_header
-0.572365 -0.527314 -0.076867 0.880336 0.323446 -0.346975
0.694387 0.472528 0.338837 -0.121461 -0.121136 0.985177
-0.279227 0.387194 0.494833 -0.082946 -0.995344 0.049086
-0.503449 -0.558245 -0.562810 0.059903 -0.884575 -0.462536
0.292422 0.204777 -0.133088 -0.171223 0.618870 -0.766605
0.611455 0.443390 0.289332 -0.398667 -0.504193 -0.766064
0.487450 0.113594 0.143297 -0.005257 0.191222 0.981533
-0.596435 0.441808 0.232872 -0.247763 0.884155 -0.396085
-0.521420 0.086257 0.312951 -0.447365 -0.733408 0.511836
-0.199327 -0.063917 0.173746 -0.030487 -0.345371 0.937971
-0.187373 -0.085269 0.166273 -0.030487 -0.345371 0.937971
0.654023 0.179341 -0.061048 0.742108 0.667640 0.059435
0.603613 -0.509769 0.273103 0.512524 0.022086 0.858389
-0.315412 0.209596 0.240577 0.887939 -0.201355 0.413546
-0.469952 -0.042238 -0.113731 -0.763648 0.526223 -0.374073
0.692142 0.050320 0.009927 0.914663 -0.060012 -0.399737
0.425674 0.186626 0.089511 0.048074 0.885750 0.461667
-0.473678 -0.413432 0.015545 0.158807 -0.401265 0.902090
0.677888 0.306150 0.010091 -0.210874 0.904604 -0.370437
-0.539139 0.199102 0.158933 -0.943077 -0.287407 -0.167340
0.162570 -0.052551 0.158405 0.155408 -0.392941 0.906337
-0.284896 -0.222009 -0.283440 0.364713 -0.699848 0.614164
-0.506679 0.128971 0.122937 -0.869066 -0.475227 0.137416
-0.448031 0.140892 0.294241 0.485446 -0.871594 -0.068301
0.073086 -0.072292 -0.300772 0.073565 -0.092521 -0.992989
-0.217734 0.036017 0.184574 -0.127964 0.337691 0.932518
0.048575 0.075215 -0.283174 0.171932 0.520814 -0.836177
-0.340566 -0.362707 -0.389873 0.516007 -0.707990 0.482169
-0.358074 -0.152403 0.137611 -0.347208 -0.199666 0.916286
0.002213 -0.253661 0.036242 -0.000517 -0.888940 0.458023
-0.544661 0.193120 0.186258 -0.349400 -0.744030 -0.569508
-0.509603 0.410298 0.096014 -0.650772 0.706486 -0.278162
-0.417480 -0.065353 0.091341 -0.934521 0.058934 0.350995
-0.515675 0.203646 0.481672 0.164460 0.601715 0.781596
-0.202123 -0.193948 0.119830 0.286453 -0.556693 0.779768
-0.378478 -0.301348 0.073846 -0.067452 -0.356083 0.932017
-0.589684 0.288240 0.208185 -0.896099 -0.015170 -0.443594
0.611549 -0.096575 -0.176705 0.806122 -0.392077 -0.443219
-0.294350 0.405437 0.482015 -0.834731 0.328786 -0.441729
0.293853 -0.143577 -0.157368 0.452565 -0.708400 -0.541622
-0.098988 0.272410 -0.039842 0.423477 0.904431 -0.051693
0.284563 -0.198386 -0.024941 0.409573 -0.869217 0.276970
-0.355623 0.444831 0.578434 -0.336602 -0.758771 0.557643
0.038173 -0.113584 -0.298705 0.055731 -0.113595 -0.991963
-0.392543 0.449130 0.134939 -0.071847 0.985482 -0.153828
-0.616360 0.351664 0.252350 -0.975045 -0.101229 -0.197586
-0.470793 0.151037 0.445243 0.762675 0.168190 0.624531
0.170819 0.224141 -0.053121 0.103787 0.971929 -0.211146
0.007231 -0.120324 0.127903 -0.128751 -0.454456 0.881415
0.246408 0.136193 -0.193754 0.109112 0.686686 -0.718719
-0.102125 -0.117902 -0.306990 0.068332 -0.035059 -0.997046
-0.563398 0.298278 0.417123 -0.541297 0.232697 0.807991
0.314160 0.217529 -0.088608 -0.151203 0.977199 -0.149060
-0.426887 0.062873 -0.178039 -0.990732 0.015100 -0.134987
-0.500254 0.106286 0.449095 0.466428 -0.879039 0.098668
0.684184 0.335922 0.247055 -0.220105 0.751623 -0.621785
-0.583138 0.195415 0.466036 -0.864447 0.423757 0.270482
-0.370699 -0.405766 -0.431023 0.488617 -0.662542 0.567708
0.191029 0.197212 -0.124125 -0.014340 0.933475 -0.358355
-0.157192 0.292868 -0.080734 0.294634 0.954617 -0.043548
-0.480528 -0.071893 -0.114451 -0.855649 -0.377340 0.354231
-0.128651 0.066901 0.164718 0.219737 0.252912 0.942206
0.569142 -0.171897 0.201243 -0.299791 -0.145202 0.942890
0.208825 -0.123562 -0.244152 0.463724 -0.419756 -0.780234
0.722439 0.342171 0.276822 0.459641 -0.348521 0.816862
-0.116434 0.132714 0.142764 0.372499 0.231060 0.898808
-0.793862 0.363699 0.321816 0.045362 -0.909072 0.414162
-0.181377 -0.018254 -0.345894 0.104512 0.014511 -0.994418
-0.596528 0.262691 0.353088 -0.834558 -0.501604 0.227831
0.637009 -0.086117 0.167637 0.587072 0.202799 0.783721
-0.507402 0.204428 -0.070853 -0.774990 -0.201070 -0.599134
0.478991 -0.010807 -0.251348 0.226349 0.193901 -0.954551
-0.542981 0.204704 0.170093 -0.349400 -0.744030 -0.569508
-0.300157 0.434510 0.383970 0.069857 0.997544 -0.005137
0.625490 0.057609 0.153713 0.591234 0.145134 0.793334
-0.746318 0.385159 0.268818 0.491297 0.318858 0.810529
-0.375265 -0.463038 -0.521141 0.863322 0.486555 -0.133936
0.594622 -0.130443 0.188443 0.194205 0.150570 0.969336
-0.331705 -0.214235 -0.400927 -0.068050 0.262166 -0.962621
-0.348063 -0.144355 -0.277864 -0.738293 -0.619802 -0.266023
-0.158042 -0.173987 0.107207 0.493492 -0.571911 0.655273
-0.064403 -0.147282 0.103748 -0.157459 -0.416991 0.895168
-0.128696 -0.312694 -0.129620 0.005142 -0.985671 0.168599
-0.323489 0.003342 0.176730 -0.013878 -0.512864 0.858358
0.672160 0.037098 -0.078056 0.948035 -0.282375 -0.146609
-0.163744 0.023128 0.179067 0.275822 -0.012047 0.961133
-0.188770 -0.240283 -0.242600 0.087833 -0.802426 -0.590252
0.336744 -0.121125 -0.194245 -0.109133 -0.904497 -0.412281
0.552323 0.166303 -0.158759 0.236462 0.642689 -0.728722
0.359166 0.028171 0.132461 -0.034046 -0.136384 0.990071
0.687018 -0.066010 0.035967 0.855847 0.026310 -0.516560
-0.028231 0.177015 -0.191339 0.039020 0.848664 -0.527491
-0.306852 0.000977 0.172113 0.169017 -0.570422 0.803774
-0.522913 0.452991 0.320962 -0.049301 0.977893 0.203211
-0.402794 0.372669 -0.022241 -0.349579 0.594731 -0.723940
0.066366 -0.250714 0.029940 0.343175 -0.812876 0.470598
-0.238501 -0.085278 0.164897 0.001611 -0.294139 0.955761
-0.580790 0.239486 0.207502 -0.972176 -0.100535 -0.211583
-0.363399 -0.250608 -0.345931 -0.699012 -0.245150 0.671777
0.040273 -0.092256 -0.301030 0.055731 -0.113595 -0.991963
0.511987 -0.155283 -0.133585 0.187599 -0.912659 0.363127
-0.335030 0.288033 0.278295 0.705077 -0.482935 0.519269
0.773174 0.296946 0.083205 0.292177 -0.950030 0.109893
0.674389 -0.128459 0.143797 0.809932 0.133319 0.571172
-0.102984 -0.251198 0.025507 -0.175151 -0.785944 0.592971
-0.058229 0.044969 -0.297641 0.112877 0.532124 -0.839109
-0.107875 0.003632 0.162414 0.505266 -0.020154 0.862728
-0.102660 -0.167208 -0.293267 -0.045688 -0.382079 -0.923000
-0.534415 0.077153 0.236503 -0.567876 -0.817308 0.097591
-0.196389 0.302592 -0.089752 0.089791 0.806753 -0.584026
0.527835 -0.153266 0.064885 -0.256714 -0.836648 -0.483858
0.624430 0.229432 -0.042993 0.079894 0.788812 -0.609420
0.588458 0.470202 0.323190 -0.966719 0.064279 -0.247633
0.030899 -0.239104 -0.200286 0.176052 -0.879113 -0.442907
-0.283252 0.371603 0.172336 0.742134 0.620876 0.252487
0.595899 -0.126158 -0.027804 0.927003 -0.123802 0.354033
-0.267653 -0.238961 0.102251 0.068687 -0.458493 0.886040
0.050020 -0.046900 -0.304847 0.073565 -0.092521 -0.992989
0.045713 0.223843 -0.012868 0.226323 0.906086 0.357471
0.769213 0.346427 0.199082 0.121035 0.985899 -0.115557
0.282677 0.220856 -0.042205 -0.245956 0.902358 0.353916
-0.419633 0.306522 0.417821 0.394186 -0.501198 0.770336
-0.322984 0.437450 0.380839 0.242662 0.919247 -0.310000
0.009691 0.055948 -0.296885 0.252709 0.405755 -0.878352
-0.513413 0.037732 0.048822 -0.882581 0.373097 -0.286093
-0.331044 0.436592 0.368320 0.069857 0.997544 -0.005137
-0.491177 -0.523097 -0.525873 -0.613504 -0.044657 0.788428
-0.021270 0.060109 -0.294841 -0.208437 0.580326 -0.787259
0.688614 -0.049326 0.113701 0.867232 0.120715 0.483049
-0.211098 0.268608 0.122044 0.610741 0.285475 0.738580
0.501708 -0.140216 0.050962 0.039005 -0.997119 -0.065058
-0.062572 0.060784 0.135493 0.463545 0.074432 0.882941
-0.343743 -0.183505 -0.298700 -0.669669 -0.306682 0.676380
0.696172 0.370711 0.302287 0.694435 -0.002879 0.719549
0.669415 0.136572 0.014580 0.815731 0.576738 -0.044241
-0.323612 -0.182128 0.132738 -0.086406 -0.492328 0.866110
-0.722903 0.359708 0.231975 0.300907 -0.942617 0.144665
-0.176034 0.147524 -0.248838 0.034651 0.647594 -0.761197
-0.434198 -0.531833 -0.587790 0.115429 -0.794650 -0.595992
0.280894 -0.078570 -0.232850 0.138883 0.138775 -0.980537
-0.438668 -0.470430 -0.488884 -0.496056 -0.369998 0.785513
-0.243765 0.412254 0.400026 0.684854 0.621391 -0.380589
0.262100 0.177028 -0.152356 0.109112 0.686686 -0.718719
-0.582713 0.432092 0.312058 -0.331279 0.629911 0.702472
-0.230758 -0.338169 -0.186976 -0.368558 -0.787681 0.493685
-0.608091 0.281338 0.271656 -0.933035 -0.357702 0.038666
0.506141 -0.286018 -0.258800 -0.137668 0.039514 -0.989690
-0.395015 0.055929 0.166173 -0.179399 -0.406190 0.896005
-0.547521 0.148103 0.285233 -0.742842 -0.650042 -0.160097
0.156476 0.219079 -0.040680 -0.009822 0.867692 0.497006
0.072898 -0.178060 0.108696 -0.014312 -0.422082 0.906445
-0.595734 -0.494410 -0.031385 -0.134183 -0.068053 0.988617
-0.248284 -0.213623 -0.386437 0.410386 -0.013881 -0.911806
-0.119686 0.136192 -0.251977 0.141238 0.496911 -0.856231
0.594187 -0.030531 -0.199584 0.498993 0.212574 -0.840130
-0.590059 0.213953 0.419572 -0.991740 0.034624 -0.123505
0.327721 0.057419 -0.222317 -0.342836 0.118514 -0.931890
-0.582226 0.190240 0.313939 -0.803872 -0.591142 -0.065883
-0.133959 0.226547 -0.167087 0.218374 0.696540 -0.683480
-0.357181 -0.219238 -0.227941 -0.615257 -0.485413 -0.621155
0.457338 -0.381687 -0.247866 -0.536333 -0.104409 0.837524
0.391224 -0.465614 -0.344734 0.421191 0.121338 -0.898819
-0.623104 0.342496 0.351826 -0.796010 0.403133 0.451500
-0.399546 0.137254 -0.183292 -0.650201 0.436406 -0.621923
-0.301258 0.405488 0.505695 -0.668959 -0.671804 -0.318078
-0.413905 0.099992 0.205397 -0.472085 -0.410838 0.779967
-0.496184 0.062565 0.145306 0.100623 -0.924435 0.367824
0.222699 0.197476 -0.128291 -0.072532 0.922426 -0.379302
0.631913 -0.080104 -0.017532 0.619971 -0.481143 -0.619788
-0.034935 0.204047 0.060015 0.501133 0.426754 0.752826
-0.356281 -0.236438 -0.403343 -0.598621 0.381939 -0.704113
-0.595404 0.180663 0.460291 -0.510306 0.751024 0.418988
-0.152636 -0.186398 0.079709 0.851036 -0.523772 -0.037422
-0.470795 0.192913 0.441207 0.736603 0.047555 0.674652
-0.231253 -0.266992 0.076988 0.314750 -0.036999 0.948453
-0.129121 0.118645 0.150000 0.300593 0.143387 0.942912
-0.375147 -0.102639 -0.262122 -0.959230 -0.153905 -0.237048
-0.314601 -0.045149 0.174046 0.059986 -0.017384 0.998048
-0.513620 0.373938 0.056238 -0.557816 0.632648 -0.537213
-0.355137 0.323873 -0.075916 0.070800 0.686087 -0.724066
0.122007 0.082054 -0.267041 -0.073440 0.575293 -0.814644
-0.548642 0.354974 0.401995 -0.226040 0.475685 0.850076
0.529271 -0.479560 0.217650 -0.561064 0.611140 -0.558315
-0.188174 -0.249752 0.042010 0.291327 -0.870826 0.395969
0.560287 -0.154721 0.199596 0.268917 0.712543 0.648048
-0.618675 0.349091 0.265095 -0.975045 -0.101229 -0.197586
0.391579 -0.153709 -0.060376 0.197352 -0.960237 -0.197478
0.148127 -0.009483 0.152451 0.067231 0.226354 0.971722
-0.350650 -0.330225 -0.013438 0.396159 -0.502683 -0.768354
-0.312210 -0.290146 -0.162520 -0.156545 -0.986825 -0.040859
-0.113798 -0.263910 0.005464 -0.175151 -0.785944 0.592971
-0.513459 0.014690 0.047220 -0.422759 -0.896249 0.134209
-0.016257 0.121955 0.096973 -0.017289 0.590055 0.807178
-0.519479 0.426751 0.180705 -0.289359 0.956891 -0.025127
0.670416 -0.035585 -0.005839 0.610926 -0.384873 -0.691840
-0.495183 0.129383 -0.061705 -0.851015 -0.174013 -0.495473
-0.282077 0.022622 -0.323048 -0.227842 0.464004 -0.856030
-0.321319 -0.321723 0.004130 0.544117 -0.742978 -0.389771
0.572218 -0.085522 -0.214015 0.503300 -0.032534 -0.863499
0.614789 -0.094250 -0.100169 0.653734 -0.742628 0.145380
-0.480872 0.403706 0.389650 -0.271655 0.677386 0.683632
-0.449162 0.214955 0.424126 0.759159 0.054568 0.648613
-0.027795 -0.273437 -0.159163 0.221478 -0.849070 -0.479613
-0.233615 0.006742 -0.335956 0.151592 0.360768 -0.920253
0.418172 0.165454 0.120873 0.078439 0.653023 0.753265
0.458579 -0.039998 0.180445 -0.056610 -0.069044 0.996006
-0.306722 0.405608 0.516985 -0.691005 -0.650428 -0.315366
-0.550444 0.319023 0.415397 -0.460146 0.408896 0.788080
-0.075301 0.263129 -0.008185 0.423477 0.904431 -0.051693
0.001066 -0.266328 -0.159183 0.190018 -0.875074 -0.445127
-0.415303 0.043397 -0.211062 -0.732278 0.041174 -0.679760
0.332267 0.018973 -0.220961 0.048795 0.057964 -0.997125
-0.500461 0.057654 0.042635 -0.806368 0.550153 -0.217033
-0.300055 -0.218354 -0.265369 -0.128142 -0.634188 -0.762487
-0.331527 -0.181611 0.132242 -0.086406 -0.492328 0.866110
-0.303704 0.003404 0.173173 0.169017 -0.570422 0.803774
-0.143336 0.068236 -0.295587 0.154966 0.496083 -0.854334
0.075564 -0.273035 -0.064938 0.080524 -0.984017 -0.158829
0.795563 0.331464 0.204567 0.532575 0.708944 0.462345
0.670197 -0.026391 0.140531 0.765219 0.260452 0.588731
-0.388162 -0.524908 -0.535999 0.752562 -0.590772 -0.290928
-0.496821 0.002811 0.006413 -0.116880 -0.889079 0.442581
-0.528431 0.144973 0.496530 0.191111 -0.384016 0.903332
-0.382165 0.430366 0.084620 0.173616 0.894225 -0.412576
-0.425101 0.435984 0.080320 0.136281 0.910105 -0.391326
0.319240 -0.458931 -0.329204 -0.630305 0.763764 -0.139213
-0.271812 0.299082 0.216009 0.905430 0.083456 0.416211
-0.508100 -0.354456 -0.000430 -0.521834 0.629368 0.575834
0.415357 -0.065829 0.146782 -0.489255 -0.255981 0.833729
-0.280239 0.231010 0.220312 0.633304 -0.061787 0.771432
0.225832 0.066334 -0.239327 0.339567 0.134296 -0.930945
-0.169851 0.137089 -0.254608 0.039640 0.490054 -0.870791
-0.452488 -0.043071 -0.026939 -0.859808 -0.470974 0.197265
0.132642 0.036668 0.142557 0.194513 0.345870 0.917899
-0.454801 -0.468479 -0.520981 -0.772474 0.625783 0.108074
-0.105577 0.274576 -0.067614 0.347677 0.933935 0.082982
-0.535931 0.196846 0.082961 -0.939884 -0.331021 -0.083919
-0.482828 0.277170 -0.063624 -0.577912 0.607098 -0.545390
-0.443197 -0.055775 -0.040040 -0.576507 -0.779310 0.245593
-0.268929 0.086386 -0.290421 -0.239614 0.492292 -0.836800
-0.226200 -0.278626 -0.212141 0.155635 -0.354851 -0.921878
0.436303 -0.395081 -0.300075 0.159208 0.367544 -0.916278
0.564778 -0.212565 0.130257 -0.515729 -0.690081 -0.507751
-0.085374 -0.122880 -0.305667 0.068332 -0.035059 -0.997046
-0.218274 0.366397 0.383422 -0.205745 -0.869841 0.448382
-0.436948 -0.136054 -0.058869 -0.986713 0.015069 -0.161774
-0.601424 0.436574 0.276801 -0.495750 0.594384 0.633198
0.005326 -0.129638 0.122822 -0.128751 -0.454456 0.881415
-0.407938 0.076095 -0.203597 -0.699864 0.377043 -0.606654
-0.333168 0.435072 0.539001 -0.825177 -0.201745 -0.527618
-0.277116 -0.282264 -0.373642 0.838027 -0.177680 -0.515887
0.370277 -0.158995 -0.055959 0.197352 -0.960237 -0.197478
-0.679988 0.402535 0.255662 -0.364726 0.209809 0.907169
-0.217253 0.323210 -0.001069 0.358680 0.930589 -0.073162
-0.166936 0.302951 0.002876 0.320568 0.938103 -0.131144
0.322119 0.062216 -0.217605 -0.595294 0.266233 -0.758120
-0.571064 0.392382 0.163570 -0.306359 0.929721 -0.204357
0.045230 -0.182247 -0.266777 0.145387 -0.751388 -0.643645
0.080665 0.061564 0.132608 0.008383 0.591174 0.806500
-0.257260 0.415399 0.385543 0.481410 0.750906 -0.452090
-0.624018 0.327863 0.152641 -0.318284 -0.352142 0.880166
0.036966 -0.046589 0.158576 -0.092293 0.123331 0.988064
-0.319751 0.310386 0.276495 0.727715 -0.438282 0.527578
0.762116 0.317524 0.112760 -0.850275 -0.494992 0.178931
0.610826 -0.489819 0.195179 0.540268 0.001131 -0.841492
0.527732 -0.533381 0.235899 -0.003151 -0.960845 -0.277067
-0.490270 -0.559243 -0.529438 -0.299546 -0.332513 0.894264
0.025566 0.144892 -0.223002 0.112877 0.532124 -0.839109
0.669401 -0.059517 0.147176 0.681519 0.046211 0.730340
0.144339 -0.147756 0.120450 0.018600 -0.435351 0.900069
-0.406684 -0.227307 -0.147000 -0.403928 -0.808464 0.428051
-0.068175 -0.202393 -0.262071 0.084630 -0.651170 -0.754198
-0.197546 -0.276190 -0.204594 0.376105 -0.327092 -0.866923
-0.505354 0.240589 0.457677 0.375140 0.407185 0.832749
-0.397523 -0.308181 -0.389647 -0.922655 0.376110 -0.085144
-0.573601 -0.517839 -0.071173 0.880336 0.323446 -0.346975
-0.521545 0.110577 0.362786 -0.031547 -0.992068 -0.121682
-0.328470 -0.073078 -0.347648 -0.147903 0.047125 -0.987879
0.355596 -0.519397 -0.297360 0.345128 -0.929722 -0.128464
-0.766836 0.396152 0.307003 0.791457 0.580535 0.191246
-0.261772 -0.289529 -0.075978 -0.124313 -0.982532 0.138481
-0.106038 -0.075096 0.148211 0.259084 -0.235762 0.936639
-0.283634 -0.302975 -0.169800 -0.358243 -0.793249 0.492359
-0.514150 0.415683 0.119285 -0.689354 0.619778 -0.375056
-0.293035 0.383029 0.413959 -0.198099 -0.940991 0.274397
-0.210305 -0.057880 -0.355030 -0.096358 0.312903 -0.944884
0.468964 0.146587 -0.199837 0.135718 0.615462 -0.776394
-0.432548 -0.425737 -0.483058 -0.822984 0.462022 -0.330504
-0.198387 0.111486 -0.275567 -0.023218 0.652553 -0.757387
0.183723 0.082959 0.111589 -0.005799 0.535471 0.844534
-0.485998 0.136278 0.455479 0.647893 -0.744977 -0.158887
0.146677 -0.257225 -0.128116 0.159834 -0.846284 -0.508190
0.294405 -0.012813 -0.229413 0.312183 0.042280 -0.949081
-0.330102 -0.140908 -0.372626 -0.679796 0.473388 -0.560162
0.576936 -0.174667 -0.077297 -0.415958 0.204626 -0.886063
-0.436817 -0.169819 -0.118628 -0.843352 -0.385295 0.374572
0.625733 -0.186152 0.196156 0.462010 0.245993 0.852077
-0.686922 0.384430 0.174713 -0.550766 0.830573 0.082500
-0.572648 0.331840 0.404989 -0.183493 0.122055 0.975414
0.429659 0.136855 0.142821 0.148165 0.097831 0.984112
0.124044 0.202094 -0.109784 0.185600 0.862097 -0.471530
-0.356700 -0.160896 0.136281 -0.347208 -0.199666 0.916286
-0.318312 -0.340366 -0.435083 0.771515 0.093798 -0.629258
-0.404254 0.454074 0.327655 0.208698 0.976622 0.051524
-0.440946 -0.281764 0.017923 -0.753555 0.652794 -0.077552
0.741352 0.316274 0.025518 0.327992 0.651768 -0.683827
-0.426994 0.385756 0.408610 0.294936 0.551834 0.780059
0.401558 0.005817 0.152991 -0.552937 0.092584 0.828063
-0.587968 0.225405 0.266496 -0.964318 -0.232404 -0.126807
0.672989 -0.098927 0.036642 0.519043 -0.606894 -0.601892
0.543337 0.096538 -0.210601 0.122035 0.357865 -0.925765
-0.322670 0.377315 0.017827 0.464940 0.728996 -0.502389
-0.274959 -0.228755 -0.297027 0.364713 -0.699848 0.614164
0.175901 0.021370 -0.274632 0.287215 -0.008814 -0.957826
0.095279 -0.096702 0.146158 0.018600 -0.435351 0.900069
-0.600104 0.175448 0.458327 -0.974927 -0.071154 -0.210844
-0.635261 0.343904 0.170308 -0.392831 -0.760919 -0.516417
-0.302119 0.093406 -0.279900 -0.131895 0.484462 -0.864812
0.680269 0.408149 0.318614 0.278250 -0.332459 0.901137
0.422397 0.217664 -0.087319 -0.066048 0.910783 -0.407568
0.513826 -0.168366 -0.252579 0.701113 0.152529 -0.696545
0.610649 0.229590 -0.044595 0.079894 0.788812 -0.609420
-0.412580 -0.387326 0.002076 0.509906 -0.841334 0.179313
0.122189 0.112931 -0.245252 -0.073440 0.575293 -0.814644
-0.084211 0.099258 0.137498 0.575256 0.253823 0.777595
-0.278592 0.175768 0.198799 0.692921 -0.104590 0.713387
-0.487179 -0.552054 -0.572289 0.095685 -0.851437 -0.515655
-0.477002 0.371679 0.419941 -0.695222 0.477534 0.537241
0.387060 -0.135395 -0.250428 -0.701300 -0.233710 -0.673468
-0.663166 0.384720 0.262648 -0.236736 -0.467198 0.851870
-0.340164 -0.238153 -0.406843 -0.068050 0.262166 -0.962621
-0.289755 0.390473 0.434945 -0.969958 -0.235934 0.059302
-0.393942 0.258177 -0.118890 -0.297943 0.601882 -0.740924
0.149813 0.205753 -0.015343 0.026838 0.944793 0.326566
-0.055595 0.130714 0.104378 0.371315 0.301678 0.878132
-0.118092 0.273246 0.045842 0.740761 0.671738 0.006434
0.433416 -0.169473 -0.261609 -0.334200 -0.382845 -0.861243
-0.122944 -0.265702 -0.198249 0.087833 -0.802426 -0.590252
0.241272 -0.221083 -0.036166 0.346383 -0.885073 0.310908
0.594671 -0.052716 -0.202163 0.503300 -0.032534 -0.863499
-0.424673 -0.389776 -0.017171 0.664284 -0.176192 -0.726418
-0.466150 0.232721 -0.106764 -0.567689 0.397826 -0.720739
-0.439874 0.037344 -0.133995 -0.937726 0.160760 -0.307938
0.512994 0.047061 0.167269 -0.112718 0.209882 0.971208
-0.125258 0.271600 -0.113615 0.291071 0.928619 -0.230096
-0.528404 0.120342 0.468915 0.001387 -0.970916 0.239415
0.356678 -0.060762 -0.245659 -0.606281 -0.159352 -0.779122
0.757016 0.292180 0.055271 0.436377 -0.870084 -0.229192
0.576700 0.240500 -0.033955 -0.026719 0.944198 -0.328293
-0.248486 -0.202974 0.124527 0.132181 -0.340421 0.930936
-0.003459 -0.141382 0.116400 -0.139288 -0.392707 0.909054
0.527629 -0.138240 0.036230 0.039005 -0.997119 -0.065058
-0.433989 -0.228066 -0.185290 -0.814921 -0.380136 -0.437494
0.580062 -0.206792 -0.021112 -0.489715 -0.289017 0.822586
-0.168472 -0.306927 -0.104291 -0.159827 -0.970957 0.178041
-0.348672 0.169480 -0.196085 -0.384987 0.733966 -0.559534
-0.392700 0.453626 0.187042 0.148898 0.948448 0.279778
0.495656 0.065990 0.161166 -0.112718 0.209882 0.971208
0.546436 -0.218888 0.160770 -0.442631 -0.765229 0.467442
-0.507463 0.235072 -0.072061 -0.760253 0.240757 -0.603367
-0.484029 0.049162 -0.023396 -0.880714 0.333298 -0.336534
-0.210187 0.245596 0.131911 0.182555 0.447458 0.875474
-0.010888 -0.284753 -0.099544 0.136502 -0.988755 0.061082
-0.241260 0.416333 0.467535 0.816229 0.577193 0.024875
-0.775846 0.381084 0.338511 0.931608 -0.334861 0.141333
-0.427423 0.270045 0.404458 0.599586 -0.137471 0.788415
-0.364452 0.108350 -0.238579 -0.809621 0.265531 -0.523457
-0.745104 0.404565 0.259367 -0.150245 0.975446 0.161031
-0.447848 0.406490 0.392711 -0.082750 0.630707 0.771596
0.462276 0.067638 -0.236821 0.183717 0.205922 -0.961168
-0.262796 -0.263068 -0.349005 0.413245 -0.734815 0.537844
-0.634253 -0.568700 -0.050326 -0.000000 -1.000000 -0.000000
-0.608809 -0.545432 -0.045559 0.546418 -0.452773 0.704573
0.460484 0.211888 0.035500 0.069436 0.872982 0.482784
-0.792610 0.400331 0.380575 0.106493 -0.669149 0.735458
-0.561881 0.268114 0.086405 -0.955830 -0.290918 -0.041907
-0.438470 0.318088 -0.052470 -0.325276 0.677904 -0.659273
-0.203255 0.247315 -0.161887 0.170010 0.782485 -0.599011
-0.386556 0.352224 0.373647 0.826645 0.281713 0.487131
-0.493097 -0.516223 -0.534864 -0.861944 0.506929 -0.008708
-0.429329 -0.464572 -0.535058 -0.012263 0.633023 -0.774036
0.589223 0.088457 0.160995 0.035078 0.429360 0.902452
-0.382094 -0.283329 -0.411011 -0.760211 0.610951 -0.220950
-0.191110 0.306744 -0.056608 0.468712 0.864641 -0.180846
-0.160435 0.110269 0.161256 0.300593 0.143387 0.942912
0.566787 -0.175450 -0.192862 0.674247 -0.324648 0.663321
-0.396167 0.238288 -0.134152 -0.297943 0.601882 -0.740924
-0.372307 -0.320149 -0.457759 0.083571 0.650200 -0.755153
-0.214710 0.194869 -0.212956 0.060531 0.605862 -0.793264
0.515115 0.088074 0.155471 -0.099967 0.385884 0.917115
0.677132 0.152201 -0.064372 0.725503 0.630843 -0.275104
0.741242 -0.290727 0.183080 0.410493 0.141914 0.900753
-0.262511 0.382392 0.456682 -0.322649 -0.927060 0.190936
-0.379404 -0.128031 0.129517 -0.896963 0.007491 0.442043
-0.512304 0.127326 0.081672 -0.869066 -0.475227 0.137416
0.490981 -0.147811 0.163891 -0.694688 -0.412834 0.589047
0.612102 0.203738 0.055264 0.080067 0.691132 0.718279
0.412277 -0.146158 0.116331 -0.351531 -0.634572 0.688291
-0.490645 0.128180 -0.069075 -0.851015 -0.174013 -0.495473
-0.802677 0.370441 0.272943 -0.841394 -0.539248 -0.035593
0.691779 0.396147 0.306896 0.990547 0.085211 0.107500
-0.496168 0.326556 -0.009331 -0.439307 0.576495 -0.688958
-0.640427 -0.568700 -0.100596 -0.000000 -1.000000 -0.000000
-0.150297 -0.297976 -0.050560 -0.063556 -0.859220 0.507642
0.555061 -0.217562 -0.193306 0.098509 -0.215705 0.971477
-0.339381 -0.203421 -0.303411 -0.669669 -0.306682 0.676380
0.334505 0.213551 -0.134232 -0.164676 0.972236 -0.166250
0.705555 0.547174 0.355752 0.438760 -0.244714 0.864642
-0.435143 -0.431469 -0.479972 -0.905384 0.225566 0.359723
-0.607825 0.312651 0.241818 -0.804474 -0.529101 -0.269953
-0.313006 0.197199 -0.195890 -0.427683 0.470896 -0.771585
0.483846 -0.139817 -0.016439 0.142486 -0.982984 -0.115932
-0.424869 -0.393603 0.007567 0.509906 -0.841334 0.179313
-0.550418 0.218567 0.163999 -0.768628 -0.348606 -0.536364
0.386429 0.128243 0.143527 -0.203662 0.091123 0.974791
-0.051943 0.078588 0.125562 0.330014 0.557454 0.761798
-0.417689 0.201649 0.379182 0.603282 -0.352194 0.715548
0.437147 -0.070198 0.159513 -0.537191 -0.215254 0.815531
-0.549302 0.318580 0.044305 -0.633410 0.611526 -0.474160
-0.353313 0.343531 -0.059260 0.059898 0.597594 -0.799559
0.153087 0.163504 0.039277 0.098841 0.786688 0.609387
-0.493098 0.078133 -0.006727 -0.877688 -0.441144 0.187234
-0.525735 0.397031 0.100059 -0.650772 0.706486 -0.278162
0.300919 -0.084679 -0.230878 0.138883 0.138775 -0.980537
0.368143 0.221239 0.017768 -0.023014 0.924424 0.380672
0.195816 -0.205931 0.053650 0.317066 -0.888215 0.332481
-0.467743 0.085557 -0.096836 -0.788318 -0.228655 -0.571202
0.573260 -0.277676 -0.194824 -0.097028 0.235374 0.967049
0.519011 -0.192430 -0.247862 0.301123 -0.400125 -0.865578
0.699045 0.024330 0.048349 0.972342 0.194934 -0.128652
0.571286 0.003546 0.180564 0.016531 0.057168 0.998228
-0.294324 0.382492 0.183665 0.800774 0.576156 0.163724
-0.390028 0.374184 0.373281 0.779941 -0.373094 0.502486
-0.186892 -0.243404 0.048922 0.225460 -0.437910 0.870289
-0.289362 -0.265078 -0.331339 0.413245 -0.734815 0.537844
-0.245168 0.389943 0.485083 0.889576 -0.307810 0.337502
-0.414501 -0.023696 -0.212578 -0.825551 -0.236872 -0.512208
0.631911 0.265765 0.033590 -0.510549 0.435353 0.741490
0.794855 0.313569 0.199529 0.924883 -0.156263 0.346659
-0.320558 -0.249986 -0.223831 -0.373376 -0.798725 -0.471835
0.636561 -0.074607 -0.096663 0.745368 -0.605890 0.278070
0.639503 -0.052594 -0.051538 0.724649 -0.638635 0.258898
0.577444 0.248808 -0.021589 -0.071393 0.821875 -0.565177
-0.310576 0.408785 0.417132 -0.666804 0.434372 0.605553
0.693406 -0.072929 0.101471 0.978106 -0.200397 0.056124
-0.606336 -0.460629 -0.040317 -0.737905 0.598035 0.312810
0.517016 0.211625 -0.102459 0.165905 0.841385 -0.514341
-0.415893 -0.367344 -0.412062 -0.568716 -0.406113 0.715286
-0.247189 0.050138 0.173150 0.046229 0.034816 0.998324
-0.248046 0.378443 0.439990 0.368613 -0.928304 0.048742
0.372099 -0.508756 -0.328789 0.371108 -0.869844 -0.325039
0.177409 0.110471 -0.235603 0.163495 0.689812 -0.705286
-0.286236 0.384189 0.425316 -0.322649 -0.927060 0.190936
-0.210147 0.104614 0.167949 0.024801 0.095936 0.995078
0.777745 0.345252 0.202505 0.153075 0.988214 -0.000351
0.554435 -0.306334 -0.192607 0.050482 0.106576 0.993022
-0.293298 -0.284229 -0.041748 0.049050 -0.991538 0.120197
0.591571 -0.474024 0.276390 0.110567 0.565075 0.817597
-0.310421 -0.161235 0.144474 -0.063052 -0.444853 0.893381
-0.103406 -0.236098 -0.235587 0.087833 -0.802426 -0.590252
-0.386253 -0.182688 -0.213657 -0.848754 -0.383134 -0.364451
0.439852 0.204049 0.054608 0.048074 0.885750 0.461667
-0.357943 -0.191651 -0.330052 -0.921936 0.226718 0.314058
0.235012 0.213890 -0.068755 0.103787 0.971929 -0.211146
-0.436308 -0.076538 -0.006528 -0.984316 0.158770 -0.076898
-0.545436 0.226411 0.051615 -0.907316 -0.418564 -0.039780
-0.557200 0.235750 0.462424 -0.650186 0.583050 0.487146
0.043719 -0.278275 -0.114077 0.061924 -0.997725 -0.026629
-0.418381 -0.474765 -0.545569 0.028105 0.787342 -0.615875
-0.542609 0.222215 0.031288 -0.907316 -0.418564 -0.039780
-0.257321 0.433249 0.453537 0.324356 0.945883 0.009885
0.068206 -0.179362 -0.264955 0.145387 -0.751388 -0.643645
-0.540569 -0.459992 -0.055367 0.171804 -0.084849 -0.981470
0.657452 0.229795 0.008531 0.783454 -0.599495 0.163723
0.523518 -0.142067 0.047811 -0.256714 -0.836648 -0.483858
-0.394224 -0.237468 -0.153089 -0.395350 -0.798816 0.453421
-0.376973 -0.261042 -0.078755 -0.724318 -0.643763 -0.246845
-0.475648 0.126212 -0.099901 -0.904290 -0.109297 -0.412690
-0.432227 -0.506325 -0.573061 0.085589 0.464655 -0.881346
0.285653 0.153884 0.075018 -0.085486 0.303433 0.949010
-0.342776 0.455776 0.553187 -0.317161 0.578674 -0.751362
0.148945 -0.037234 0.158064 0.094017 0.163726 0.982016
-0.521130 0.317710 0.426717 -0.273588 0.374003 0.886156
-0.307982 -0.132501 0.154726 0.011809 -0.076095 0.997031
-0.380956 -0.265859 -0.372965 -0.754295 -0.241791 0.610389
-0.458453 -0.501304 -0.499257 -0.554499 0.012946 0.832083
-0.330834 0.249791 0.266165 0.082825 -0.384787 0.919282
-0.337811 0.056357 0.171924 -0.402952 0.228496 0.886239
-0.155107 0.162815 -0.234876 0.034651 0.647594 -0.761197
-0.062458 -0.134577 0.110291 -0.132818 -0.471952 0.871562
0.289333 0.179162 0.055347 -0.244626 0.832883 0.496451
-0.587884 0.227470 0.403013 -0.944481 0.088818 0.316334
-0.533773 0.246464 -0.028836 -0.945880 0.006578 -0.324449
-0.359375 0.454741 0.566224 -0.730791 -0.351758 -0.584988
-0.102468 -0.268211 0.003110 -0.175151 -0.785944 0.592971
-0.305109 0.320271 -0.074438 0.070800 0.686087 -0.724066
-0.547749 -0.393298 -0.010154 -0.756140 0.560713 0.337423
0.660644 0.298451 0.032359 -0.542073 0.735209 0.406970
-0.598575 0.291002 0.394288 -0.810021 -0.476222 0.342167
-0.458142 -0.018788 0.006398 -0.859808 -0.470974 0.197265
0.011365 -0.018993 0.151021 -0.028760 0.182862 0.982718
0.711280 0.534943 0.348072 0.520862 -0.425283 0.740160
-0.567484 -0.515913 -0.050443 0.971691 -0.225314 0.071061
0.331209 -0.191210 -0.062547 0.302834 -0.921156 0.244466
0.684556 -0.099144 0.075636 0.892224 -0.417405 -0.172363
-0.460826 0.343424 -0.017688 -0.416102 0.587514 -0.694036
-0.400836 -0.527497 -0.511573 0.749806 -0.430667 0.502311
0.251440 -0.215739 -0.118774 0.148444 0.277724 -0.949123
0.421341 0.161614 0.123873 0.078439 0.653023 0.753265
-0.546689 0.327993 0.412934 -0.460146 0.408896 0.788080
0.626746 0.228928 -0.043342 0.079894 0.788812 -0.609420
-0.292952 -0.275832 -0.406221 0.403079 0.003394 -0.915159
0.337842 -0.030493 0.122280 -0.018791 -0.214446 0.976555
-0.494554 -0.421634 0.015572 0.158807 -0.401265 0.902090
0.555778 -0.175741 -0.175232 -0.112469 -0.729632 0.674527
0.576889 0.034247 0.178111 -0.139499 0.228049 0.963604
-0.544419 -0.408822 -0.051571 -0.675033 0.131446 -0.725984
0.497949 0.226827 -0.066871 -0.026719 0.944198 -0.328293
0.355516 0.076492 0.139791 -0.303451 0.044461 0.951809
0.114934 0.005575 0.151240 0.067231 0.226354 0.971722
-0.137270 0.288287 -0.053132 0.265848 0.961784 -0.065548
-0.290807 0.383721 0.075830 0.553853 0.818064 -0.154977
-0.010703 0.134816 0.087199 0.072414 0.625020 0.777243
0.512070 -0.373887 -0.272449 0.647986 -0.500877 -0.573791
-0.665436 0.356568 0.217621 -0.230659 -0.955088 0.186018
-0.448158 0.459736 0.274186 0.250743 0.852237 -0.459151
-0.355195 -0.196248 -0.247501 -0.731461 -0.343354 -0.589129
-0.316890 -0.265713 -0.326242 -0.416454 -0.467233 0.779910
-0.314735 -0.197759 -0.281204 -0.580054 -0.295956 0.758912
0.610672 0.012830 -0.181314 0.469167 -0.101436 -0.877264
-0.414057 0.126943 -0.175190 -0.640010 -0.096415 -0.762293
-0.051308 0.176820 -0.193360 0.039020 0.848664 -0.527491
0.775223 0.307315 0.141128 -0.831498 -0.511694 0.216286
-0.456495 -0.167042 -0.153005 -0.673006 0.091100 -0.734006
0.752645 -0.288387 0.131487 0.432410 -0.294624 -0.852184
-0.157082 -0.173039 -0.298022 0.125194 -0.652564 -0.747320
0.604722 0.226496 -0.049377 0.079894 0.788812 -0.609420
0.113843 -0.004534 -0.293003 0.287215 -0.008814 -0.957826
0.558664 -0.154268 -0.060126 -0.842072 -0.062721 -0.535705
-0.291791 0.365135 0.260524 0.860826 0.461275 -0.214951
-0.556581 0.252613 0.073118 -0.955830 -0.290918 -0.041907
0.051665 -0.230731 -0.202939 0.248039 -0.615285 -0.748266
-0.206331 0.255572 -0.153066 0.187137 0.702143 -0.687005
0.085867 0.019554 -0.299557 0.218721 0.065076 -0.973615
-0.386823 -0.509095 -0.548806 0.879596 0.380218 -0.285911
0.190074 0.144838 0.071370 -0.170624 0.823232 0.541458
0.592345 -0.503933 0.204344 0.339787 -0.887310 -0.311810
-0.417120 0.298356 0.410853 0.352426 -0.547610 0.758893
-0.611506 0.327517 0.194709 -0.377306 -0.660046 0.649600
0.232110 -0.191428 0.057781 0.317066 -0.888215 0.332481
-0.607791 0.267451 0.313713 -0.640560 -0.747244 0.176943
0.715056 0.349209 0.250978 -0.442125 0.753223 -0.487012
-0.293474 0.329454 -0.064263 0.268405 0.863257 -0.427488
0.578288 -0.252047 -0.218899 0.565945 0.363292 -0.740085
-0.515942 0.129963 0.218284 -0.925061 0.379251 0.020744
-0.507227 0.144709 0.487356 0.494300 -0.487199 0.719934
0.050610 0.227539 -0.025336 0.226323 0.906086 0.357471
-0.381267 -0.397822 -0.474952 0.175447 0.329594 -0.927678
-0.431682 -0.452418 -0.475988 -0.496056 -0.369998 0.785513
-0.452003 -0.048021 -0.034370 -0.402400 -0.844137 0.354270
-0.404671 -0.546460 -0.526037 0.737499 -0.523492 0.426674
0.679180 -0.228755 0.127397 0.494684 -0.232561 -0.837379
-0.292957 -0.038713 0.173020 0.036253 -0.048906 0.998145
-0.210314 0.307934 -0.065197 0.020508 0.997223 -0.071598
-0.556255 0.374767 0.110923 -0.402148 0.823658 -0.399831
-0.148733 -0.064391 -0.339174 0.592451 0.016726 -0.805433
-0.369136 0.226716 0.313421 0.910870 -0.313524 0.268362
-0.684611 0.363800 0.123148 -0.150228 0.719126 -0.678446
0.751024 -0.239813 0.150901 0.587526 0.648907 -0.483459
-0.714831 -0.550659 -0.042793 -0.095422 0.411254 0.906512
-0.071478 0.118725 -0.254162 0.141238 0.496911 -0.856231
-0.311894 0.426079 0.398362 -0.538149 0.335443 0.773223
0.694775 -0.182856 0.142666 0.785104 0.469063 -0.404465
0.342737 0.215168 -0.132925 -0.164676 0.972236 -0.166250
-0.412193 -0.541808 -0.552344 0.334188 -0.921950 -0.195774
-0.236189 -0.056998 0.175095 -0.030487 -0.345371 0.937971
-0.568017 0.137854 0.481657 -0.443476 -0.523890 0.727233
-0.199916 0.256428 0.124234 0.182555 0.447458 0.875474
-0.337666 -0.175862 -0.281146 -0.731461 -0.343354 -0.589129
0.599207 -0.187036 0.202675 0.020281 0.149576 0.988542
-0.285040 0.324951 0.281631 0.049342 -0.905831 -0.420755
-0.445707 -0.410683 -0.005074 0.863193 -0.473228 -0.175937
-0.409674 0.383694 -0.000573 -0.390930 0.800481 -0.454318
0.503441 0.118406 -0.207408 0.122035 0.357865 -0.925765
0.581926 -0.079097 -0.208598 0.503300 -0.032534 -0.863499
-0.324023 0.413551 0.395355 -0.538149 0.335443 0.773223
0.653160 -0.020851 -0.146590 0.772788 -0.202578 -0.601466
-0.434572 -0.133798 -0.089844 -0.802888 -0.268683 0.532147
-0.563069 0.099103 0.429004 -0.534499 -0.552472 0.639598
-0.412687 0.453786 0.338966 0.261751 0.937344 0.229939
-0.542693 0.118589 0.465198 0.070497 -0.971231 0.227464
-0.587015 0.304566 0.140711 -0.773042 -0.581846 -0.252709
-0.312021 -0.311819 0.073058 0.067073 -0.606694 0.792101
-0.422117 -0.513669 -0.577910 0.084990 0.675488 -0.732457
-0.380224 0.207545 0.328679 0.911077 -0.313321 0.267896
0.159655 0.222618 -0.058243 0.185600 0.862097 -0.471530
-0.012556 -0.112597 0.128997 -0.128751 -0.454456 0.881415
0.258991 0.166890 0.061057 -0.209688 0.812891 0.543359
-0.012055 -0.225118 -0.229289 0.193987 -0.694149 -0.693200
-0.520428 -0.408644 0.013323 -0.389716 0.076594 0.917744
-0.340981 -0.027770 -0.328036 -0.333041 0.123449 -0.934796
-0.286340 0.432028 0.376866 0.567880 0.675571 -0.470230
0.655123 -0.447300 0.246565 0.898946 -0.049347 0.435272
0.557216 -0.171832 -0.026028 -0.308012 -0.032676 0.950821
-0.054840 0.057043 -0.289528 0.112877 0.532124 -0.839109
0.455478 -0.183477 -0.152000 -0.015994 -0.480230 0.876997
-0.121109 0.101321 -0.272449 0.141238 0.496911 -0.856231
-0.315634 0.127990 -0.256596 -0.141848 0.524713 -0.839378
0.223905 0.218262 -0.034608 -0.352022 0.758008 -0.549094
0.623440 -0.461698 0.182584 -0.126494 -0.603257 -0.787451
0.095085 -0.252865 0.004758 0.199889 -0.931353 0.304346
0.331067 -0.449118 -0.328579 -0.619912 0.771173 -0.144918
-0.542665 0.303351 0.426128 -0.273588 0.374003 0.886156
-0.026217 -0.201857 -0.253934 -0.314020 -0.575582 -0.755048
-0.467336 0.108175 0.237998 0.629693 -0.699240 0.338452
-0.278598 0.301108 -0.103436 -0.177445 0.719210 -0.671752
-0.651346 0.370933 0.123343 -0.150228 0.719126 -0.678446
0.314458 -0.167333 0.034674 0.354494 -0.884168 0.304270
0.543285 0.162226 -0.166472 0.336833 0.631859 -0.698068
0.302312 0.215027 -0.092987 -0.151203 0.977199 -0.149060
-0.394143 -0.355980 -0.387797 -0.644073 -0.338729 0.685881
-0.343978 0.410734 0.384559 -0.266037 0.351701 0.897514
-0.550312 0.133938 0.482886 -0.039710 -0.857811 0.512429
0.001911 0.052730 -0.300610 0.252709 0.405755 -0.878352
0.304706 -0.137814 0.092911 0.119549 -0.155315 0.980604
-0.290023 0.400886 0.469269 -0.909581 -0.397897 0.119753
0.014643 -0.070570 -0.305129 0.083147 -0.104258 -0.991068
-0.189444 0.247179 0.125059 0.412285 0.556834 0.721081
-0.465699 0.221305 0.435108 0.596287 0.298793 0.745093
-0.295453 0.391446 0.091688 0.569918 0.782784 -0.249885
-0.431753 0.007352 -0.172195 -0.922103 0.161617 -0.351577
-0.505411 0.265036 0.449655 0.488654 0.140671 0.861062
0.252316 -0.067543 -0.240487 0.269602 -0.105863 -0.957135
0.278113 -0.532294 -0.321318 -0.921748 0.122526 0.367923
-0.261330 0.431976 0.499063 0.376592 0.920560 0.103669
-0.311984 -0.273223 -0.419486 0.698273 0.073417 -0.712056
0.276376 -0.170822 0.068815 0.355088 -0.882843 0.307411
-0.539402 0.263822 -0.014661 -0.928120 -0.092311 -0.360655
-0.497671 0.171723 0.487900 0.897700 0.189706 0.397676
-0.405987 -0.541807 -0.541758 0.334188 -0.921950 -0.195774
0.554990 -0.472333 0.205875 -0.323483 0.263173 -0.908900
-0.396614 -0.336453 -0.454632 -0.522937 0.118576 -0.844084
-0.420571 -0.193610 -0.112332 -0.670330 -0.516577 0.532735
0.201118 0.217741 -0.067690 0.103787 0.971929 -0.211146
-0.557038 -0.446835 -0.015111 -0.085611 -0.650843 0.754370
0.471580 0.140294 -0.203146 0.122035 0.357865 -0.925765
0.601942 -0.222489 0.114164 -0.387262 -0.797009 -0.463470
-0.352397 -0.197543 0.120819 -0.125834 -0.489916 0.862640
-0.392154 -0.347570 -0.461341 -0.312990 0.397798 -0.862435
-0.589106 0.306839 0.194800 -0.736860 -0.671358 -0.079472
-0.514279 0.154059 0.159301 -0.887543 -0.396290 0.234993
0.431770 -0.154364 -0.125826 -0.008641 -0.880577 0.473825
0.200303 -0.098813 -0.254779 0.330635 -0.067441 -0.941346
0.547658 0.147356 -0.177821 0.336833 0.631859 -0.698068
-0.105749 -0.310214 -0.150990 0.484261 -0.873307 0.053163
0.357625 0.194549 0.072646 -0.090674 0.890982 0.444892
0.135949 0.195191 -0.127186 -0.014340 0.933475 -0.358355
-0.391634 0.124245 -0.194956 -0.730594 0.286689 -0.619711
-0.532703 0.354699 0.406482 -0.256290 0.469378 0.844985
0.095875 -0.018520 0.158052 0.053323 0.229149 0.971930
-0.315509 -0.142839 0.151862 -0.154250 -0.303927 0.940125
-0.428086 0.065198 0.171055 -0.277423 -0.891998 0.356898
0.314509 0.050191 0.118925 -0.088647 0.147441 0.985090
0.631821 -0.084489 -0.143395 0.823341 -0.538351 -0.179689
0.622618 -0.091070 -0.018184 0.596450 -0.552480 -0.582248
-0.496050 0.007232 0.022533 0.045298 -0.974099 0.221539
-0.125299 -0.129249 0.105853 -0.171200 -0.382480 0.907964
-0.001308 0.158701 0.071988 0.117799 0.474539 0.872317
-0.356015 -0.372459 -0.392211 0.317209 -0.848202 0.424184
-0.322806 0.407048 0.296782 0.568775 0.677232 -0.466746
0.520378 -0.134229 -0.024212 0.120277 -0.987905 -0.097862
0.435724 -0.053734 0.162921 -0.537191 -0.215254 0.815531
-0.423021 0.354377 -0.027587 -0.363027 0.609626 -0.704676
0.532902 0.227329 0.036466 -0.203845 0.707685 0.676483
0.531899 -0.346744 -0.212838 0.017199 -0.513726 0.857782
0.041279 0.011743 0.151698 -0.092293 0.123331 0.988064
0.573149 -0.146743 -0.164824 0.692692 -0.660557 0.289556
0.634945 0.017967 -0.166735 0.616029 0.158314 -0.771651
0.400253 -0.152271 -0.052878 0.556394 -0.807172 0.197229
-0.570588 0.285055 0.135557 -0.771757 -0.583868 -0.251970
-0.480521 0.416851 0.073846 -0.427498 0.712354 -0.556594
-0.566388 0.442582 0.302405 -0.324961 0.929583 0.173998
-0.348013 -0.225400 -0.320723 -0.699012 -0.245150 0.671777
0.295050 0.211238 -0.108676 -0.164676 0.972236 -0.166250
-0.246702 0.001886 0.178071 -0.295632 0.027972 0.954892
0.106744 0.094601 -0.259139 0.171932 0.520814 -0.836177
-0.204084 -0.116232 -0.364077 0.248609 0.268211 -0.930729
-0.127017 0.243919 -0.144684 0.170010 0.782485 -0.599011
-0.437471 -0.489960 -0.562971 -0.059040 0.728448 -0.682553
0.512518 -0.212699 -0.246663 -0.137786 0.208008 -0.968374
-0.500437 -0.374044 0.017236 -0.348418 0.109688 0.930899
-0.106902 0.072566 0.156341 0.278603 0.398269 0.873935
-0.304935 0.415493 0.418532 -0.666804 0.434372 0.605553
0.566144 -0.141902 -0.202414 0.464627 -0.273453 -0.842226
0.222364 0.209172 -0.096692 0.103787 0.971929 -0.211146
-0.352148 -0.380879 -0.454544 0.761321 -0.274744 -0.587287
0.526973 -0.101597 0.186900 -0.193831 0.135980 0.971565
-0.171739 0.162218 -0.236141 0.034651 0.647594 -0.761197
-0.687265 0.375360 0.135950 0.006257 0.696609 -0.717423
0.431892 0.048480 -0.252123 0.067730 0.275154 -0.959011
-0.114062 -0.256744 0.016558 0.078034 -0.871288 0.484528
0.040624 -0.257789 0.023391 0.024852 -0.935308 0.352960
-0.404874 -0.493231 -0.558117 0.423801 0.712525 -0.559196
0.147467 -0.236872 0.006565 0.168386 -0.918926 0.356681
-0.637765 -0.479160 -0.044762 -0.483714 0.604655 0.632782
0.347077 -0.053755 0.117777 -0.404900 -0.240436 0.882183
-0.425628 -0.228130 -0.194756 -0.374988 0.447558 -0.811835
0.302630 -0.026797 0.122935 -0.037757 -0.227575 0.973028
0.557064 0.121613 0.145931 -0.099967 0.385884 0.917115
0.285465 -0.187164 -0.105610 0.445523 -0.725190 -0.524985
0.161671 0.003123 0.148577 0.067231 0.226354 0.971722
-0.493649 0.098709 0.328806 0.373252 -0.695520 0.613951
-0.640722 0.382784 0.267823 -0.236736 -0.467198 0.851870
0.554829 0.253631 -0.011719 -0.071393 0.821875 -0.565177
0.049802 -0.081280 -0.301660 0.073565 -0.092521 -0.992989
0.057482 0.039521 0.144727 -0.007537 0.396141 0.918159
-0.309140 0.322798 0.292448 0.342132 -0.924894 0.165882
-0.038453 0.124136 -0.245574 0.141238 0.496911 -0.856231
-0.329732 0.436496 0.367428 0.069857 0.997544 -0.005137
0.682267 -0.172493 0.134354 0.849755 -0.059141 -0.523851
-0.425641 -0.141533 0.047130 -0.807274 -0.368384 0.461088
0.046085 -0.076383 -0.302392 0.073565 -0.092521 -0.992989
0.531231 -0.192272 0.126497 -0.396960 -0.833717 -0.383848
0.219654 -0.240407 -0.130372 0.163119 0.200235 -0.966074
-0.710430 0.401547 0.243962 0.284504 0.483725 0.827688
-0.509110 0.156247 0.492288 -0.775046 0.073083 0.627665
0.097705 -0.224009 0.062859 0.163773 -0.920261 0.355385
0.611210 -0.045737 -0.189113 0.747211 -0.200320 -0.633678
-0.235227 0.303694 -0.098435 0.173347 0.776975 -0.605194
-0.503387 0.107677 0.065947 -0.858673 -0.508451 0.064486
-0.237119 -0.214233 -0.299839 0.066748 -0.975665 -0.208859
-0.506683 0.061066 0.074127 -0.799574 0.533567 -0.275660
0.044381 -0.258181 -0.157061 0.176052 -0.879113 -0.442907
0.157583 0.157766 0.045956 0.098841 0.786688 0.609387
0.372104 -0.142271 -0.204374 -0.754992 -0.590174 -0.285800
-0.036373 0.178998 -0.188750 0.039020 0.848664 -0.527491
-0.332099 0.418203 0.387716 -0.538149 0.335443 0.773223
-0.556078 -0.494035 -0.043167 0.723641 -0.674300 -0.147181
0.357422 -0.100692 0.100448 -0.346104 0.018606 0.938012
-0.311115 -0.285671 -0.046373 0.049050 -0.991538 0.120197
-0.327133 0.049778 0.178436 -0.374772 0.266889 0.887872
-0.592303 0.311036 0.189422 -0.736987 -0.666628 -0.111607
-0.508506 -0.438050 -0.051310 0.617959 -0.493426 -0.612093
-0.202530 -0.101414 -0.359392 0.248609 0.268211 -0.930729
0.301947 -0.530213 -0.336724 0.244755 -0.952629 -0.180534
-0.021906 0.120630 0.097821 -0.017289 0.590055 0.807178
-0.495482 -0.562648 -0.532450 -0.299546 -0.332513 0.894264
-0.420687 0.412782 0.387366 0.209822 0.428224 0.878976
-0.394003 -0.531082 -0.538573 0.752562 -0.590772 -0.290928
-0.254223 -0.179440 -0.389143 0.402203 0.035455 -0.914864
-0.282868 0.381532 0.413456 0.151015 -0.888307 0.433712
0.556518 -0.206681 -0.061504 -0.984139 -0.177237 0.007595
-0.682428 -0.508449 -0.086317 -0.354231 0.722233 -0.594054
-0.762454 0.364417 0.295584 0.313713 -0.906749 0.281761
0.685821 0.081781 -0.039671 0.982293 -0.184357 0.033368
0.632064 -0.399121 0.232590 0.024946 0.376714 0.925994
-0.480943 0.341907 -0.006194 -0.439307 0.576495 -0.688958
-0.690080 -0.561265 -0.106566 -0.216629 -0.943236 -0.251750
-0.470108 0.293103 -0.059368 -0.577912 0.607098 -0.545390
0.623689 -0.062354 -0.037901 0.616256 -0.602242 0.507478
-0.681822 -0.568700 -0.076329 -0.000000 -1.000000 0.000000
-0.308919 -0.315127 -0.415805 0.836944 0.182157 -0.516085
-0.454215 -0.497429 -0.569494 -0.059040 0.728448 -0.682553
0.088878 -0.123170 -0.291759 0.143528 -0.356051 -0.923378
-0.036427 -0.095001 0.134776 -0.107562 -0.464642 0.878942
0.481207 0.221359 0.027135 -0.203845 0.707685 0.676483
0.286428 -0.165021 -0.135379 0.445523 -0.725190 -0.524985
-0.153263 -0.092841 -0.340869 0.390350 -0.021836 -0.920407
-0.463297 0.162988 0.434942 0.740283 0.041379 0.671021
0.112017 -0.079480 0.154142 0.018600 -0.435351 0.900069
-0.405318 -0.163729 -0.187983 -0.864715 -0.356739 -0.353561
-0.151194 0.030153 0.175554 0.275822 -0.012047 0.961133
0.657521 0.163187 0.010400 0.888223 0.369684 -0.272752
0.554183 -0.329310 -0.252548 0.548191 0.017480 -0.836170
-0.450512 0.390734 0.021189 -0.295372 0.668188 -0.682847
-0.635650 -0.565119 -0.103947 0.731069 -0.055371 -0.680053
0.682665 0.434656 0.284596 0.749552 0.220115 -0.624276
-0.292659 0.337547 0.255169 0.924871 -0.328539 -0.191511
0.499720 0.200342 -0.125836 0.039667 0.756318 -0.653000
-0.227468 0.257170 0.156862 0.878699 0.312173 0.361160
0.560765 -0.481783 0.282304 -0.233827 0.486127 0.842024
-0.619839 -0.476957 -0.069142 0.107419 0.549756 -0.828390
-0.005180 -0.272696 -0.150031 0.221478 -0.849070 -0.479613
-0.427619 -0.182272 -0.110728 -0.843352 -0.385295 0.374572
-0.027599 -0.017173 0.146251 -0.285721 -0.056310 0.956657
-0.123260 -0.149426 0.093083 0.274543 -0.538856 0.796405
-0.370648 -0.345325 -0.373685 -0.268232 -0.313631 0.910872
-0.321557 0.313947 -0.082038 0.070800 0.686087 -0.724066
0.282057 -0.518351 -0.316081 -0.921748 0.122526 0.367923
-0.487682 0.416196 0.079070 -0.557816 0.632648 -0.537213
-0.303050 -0.107964 -0.362632 -0.307140 0.533008 -0.788396
-0.174074 0.055965 -0.306850 0.151592 0.360768 -0.920253
0.517892 -0.104260 0.185414 -0.229170 0.108464 0.967324
0.131311 0.161402 -0.195568 0.119082 0.756673 -0.642858
0.623654 -0.424860 0.183947 -0.230921 -0.091257 -0.968683
-0.149280 -0.306722 -0.181847 0.417878 -0.027613 -0.908083
0.622776 0.176948 -0.114887 0.379741 0.594729 -0.708586
-0.350014 0.409364 0.043461 0.459414 0.783784 -0.417877
0.652985 -0.296521 0.160692 -0.625459 -0.531229 -0.571486
0.473624 0.033098 -0.246090 0.352110 0.514272 -0.782012
-0.405673 -0.085990 0.102341 -0.672859 -0.291028 0.680120
-0.469740 0.098192 -0.099137 -0.788318 -0.228655 -0.571202
-0.116295 0.085499 0.153442 0.278603 0.398269 0.873935
0.547091 -0.281968 -0.192825 0.267796 0.031569 0.962958
0.673918 0.507308 0.347286 0.139943 -0.431406 0.891238
0.133594 -0.098680 0.143867 0.169976 -0.375429 0.911132
0.695334 0.315189 0.048328 -0.542073 0.735209 0.406970
0.446378 -0.026343 0.177169 -0.537191 -0.215254 0.815531
-0.204781 -0.287924 -0.027919 0.007362 -0.905797 0.423648
0.518210 0.164308 -0.166448 0.039667 0.756318 -0.653000
0.643085 0.252654 0.040958 0.090625 -0.076951 0.992908
-0.315383 -0.345420 -0.406024 0.839787 -0.517563 0.163973
-0.375589 -0.245642 -0.377247 -0.947859 0.311635 -0.066692
-0.144501 0.070909 0.167338 0.219737 0.252912 0.942206
-0.696135 0.395639 0.250825 -0.356586 0.222412 0.907403
-0.438518 0.351374 0.430721 0.253370 0.451160 0.855721
0.526526 -0.351425 -0.264961 0.311938 0.203286 -0.928100
-0.528679 0.455883 0.307627 -0.146403 0.958427 0.244916
-0.576555 0.336917 0.129483 -0.720394 -0.005603 -0.693542
-0.222427 0.286785 0.113572 0.480322 0.856701 0.188027
0.459709 -0.259944 -0.218957 -0.833170 -0.433218 -0.343729
-0.304286 0.128138 -0.258422 -0.141848 0.524713 -0.839378
-0.321370 0.035146 -0.300702 -0.315710 0.210369 -0.925242
-0.343402 0.110526 -0.257946 -0.302210 0.426694 -0.852409
0.479288 -0.382879 -0.285984 0.104840 0.346682 -0.932105
-0.487505 0.111774 0.343129 0.618389 -0.680216 0.393575
-0.356023 0.428676 0.288519 0.529758 0.699302 -0.479930
-0.804208 0.420981 0.376903 -0.891349 -0.081769 0.445881
-0.277095 0.039216 0.179568 0.359071 -0.300917 0.883469
-0.473763 0.126667 0.413020 0.429654 -0.902629 -0.025671
0.666252 0.074394 0.119714 0.741846 0.221901 0.632790
-0.337616 0.121455 -0.254031 -0.526299 0.558521 -0.641142
-0.433411 0.110076 0.217955 0.110047 -0.738458 0.665259
-0.493752 0.075484 0.047527 -0.980055 -0.169230 -0.104184
0.317623 -0.498623 -0.290157 -0.392730 0.138417 0.909178
-0.543628 0.265349 -0.004175 -0.928120 -0.092311 -0.360655
0.384518 -0.473641 -0.277913 -0.008264 -0.237329 0.971394
0.201372 -0.304442 -0.116406 -0.063646 -0.617490 0.784000
