ply
format ascii 1.0
element vertex 837
property float x
property float y
property float z
property float nx
property float ny
property float nz
end_header
-0.343597 0.192835 -0.181597 -0.427683 0.470896 -0.771585
0.800647 0.304389 0.154503 0.333755 -0.938287 0.090687
0.092625 -0.174149 -0.263475 0.195691 -0.662428 -0.723114
0.672708 0.249659 -0.002524 0.824213 -0.552590 0.123761
-0.304325 0.001696 0.172091 0.169017 -0.570422 0.803774
-0.131326 -0.038213 0.164101 0.228610 -0.219139 0.948533
0.310806 -0.527810 -0.337395 0.244755 -0.952629 -0.180534
-0.426917 -0.396943 -0.004904 0.521897 -0.849566 0.076564
0.517961 -0.508990 0.223576 -0.560643 0.142044 -0.815784
-0.525161 -0.432905 -0.056905 0.158687 -0.217357 -0.963107
-0.195767 -0.027417 -0.347540 0.104512 0.014511 -0.994418
0.289719 -0.152392 -0.149293 0.452565 -0.708400 -0.541622
0.617088 -0.212511 0.104494 0.073689 -0.623399 -0.778424
-0.430725 -0.269029 0.060330 -0.757121 0.403150 0.514040
0.599960 -0.450411 0.260522 0.293805 0.536709 0.790963
-0.208118 0.160437 -0.239312 0.034651 0.647594 -0.761197
-0.337111 -0.250315 -0.327814 -0.416454 -0.467233 0.779910
0.406136 -0.491555 -0.307801 0.554636 -0.829577 -0.064655
-0.388420 -0.369368 0.012651 0.538334 -0.818690 0.199858
-0.315153 -0.345587 -0.407732 0.839787 -0.517563 0.163973
-0.358308 0.130608 -0.229072 -0.526299 0.558521 -0.641142
-0.179959 -0.069023 0.168705 0.228610 -0.219139 0.948533
-0.379132 -0.439161 -0.496882 0.834806 0.169555 -0.523784
0.749907 -0.257593 0.134685 0.500713 0.429422 -0.751587
0.312907 -0.149632 -0.133528 0.452565 -0.708400 -0.541622
-0.249939 -0.279572 -0.009277 0.007362 -0.905797 0.423648
-0.424807 0.079254 -0.170360 -0.936159 0.241794 -0.255228
-0.811538 0.397242 0.336736 -0.985065 0.171615 -0.013945
0.240208 -0.147328 0.099267 0.119549 -0.155315 0.980604
0.435313 -0.447065 -0.271770 0.682467 -0.676919 0.275717
-0.638585 0.346205 0.195626 -0.372503 -0.247938 0.894298
-0.374299 -0.288041 -0.424216 -0.115934 0.713839 -0.690647
-0.268065 0.409898 0.364901 0.481410 0.750906 -0.452090
0.625215 0.003588 -0.172522 0.498993 0.212574 -0.840130
-0.019773 -0.284858 -0.081405 0.136502 -0.988755 0.061082
-0.369228 0.372206 -0.030677 0.196548 0.813964 -0.546655
0.105470 0.221375 -0.041250 0.058628 0.745615 0.663793
-0.257579 0.088447 -0.292458 -0.239614 0.492292 -0.836800
0.615919 -0.089553 0.176413 0.312344 0.227988 0.922205
0.612923 -0.503835 0.234555 0.537069 -0.813968 -0.221386
-0.038990 -0.020195 0.142718 -0.030672 0.026742 0.999172
-0.300208 -0.281016 -0.344725 0.543152 -0.609677 0.577303
-0.481250 0.430926 0.095308 -0.300081 0.910245 -0.285315
-0.416727 -0.253087 -0.200541 -0.359450 -0.780028 -0.512204
-0.689038 0.337788 0.102688 0.145162 0.220159 -0.964603
0.227926 0.188617 -0.145093 0.130844 0.774787 -0.618535
-0.456814 -0.493737 -0.565329 -0.059040 0.728448 -0.682553
-0.440786 0.213665 -0.132838 -0.058587 0.588759 -0.806183
-0.020462 -0.264077 0.011031 0.024852 -0.935308 0.352960
0.551289 -0.171765 -0.038207 -0.970279 -0.176636 0.165406
-0.297867 -0.264670 -0.408344 0.403079 0.003394 -0.915159
-0.370348 0.094529 0.207200 -0.082915 -0.551541 0.830017
0.009031 -0.072955 -0.305349 0.083147 -0.104258 -0.991068
0.348528 -0.063698 0.113011 -0.535982 -0.496970 0.682454
0.721734 -0.343280 0.177871 0.802972 -0.520796 0.289841
0.695756 0.324566 0.249089 -0.170480 -0.955694 -0.239970
-0.430395 -0.422800 -0.484314 -0.822984 0.462022 -0.330504
-0.487744 -0.533327 -0.599390 -0.466349 0.686300 -0.558132
0.091641 -0.202856 -0.220493 0.301986 -0.810994 -0.501092
0.213800 0.207534 -0.016476 -0.170624 0.823232 0.541458
-0.421591 -0.022595 0.078063 -0.562211 -0.658267 0.500604
-0.094965 0.057904 -0.294380 0.112877 0.532124 -0.839109
0.381231 -0.025359 0.141314 -0.419057 -0.266871 0.867854
-0.700917 0.377992 0.164480 -0.364524 0.884851 0.290104
0.621812 -0.032645 -0.180750 0.747211 -0.200320 -0.633678
-0.065575 -0.139609 -0.303722 0.068332 -0.035059 -0.997046
-0.390191 -0.236030 -0.026936 -0.806555 -0.420631 -0.415378
-0.638359 0.419831 0.264914 -0.450141 0.639851 0.622867
-0.179205 -0.102973 0.160019 -0.030487 -0.345371 0.937971
-0.430902 -0.010035 -0.181806 -0.894002 0.057626 -0.444342
-0.417752 -0.075871 -0.190154 -0.877241 0.009378 -0.479959
-0.091624 0.249813 0.057165 0.466680 0.621754 0.628992
-0.608227 0.426759 0.209361 -0.032152 0.782282 -0.622095
-0.218795 0.280870 0.125486 0.701712 0.148757 0.696758
0.293202 -0.180531 0.021022 0.360441 -0.891289 0.275112
0.195227 -0.231094 -0.140498 0.239265 -0.720240 -0.651158
-0.353315 -0.053273 -0.332896 -0.326248 0.378263 -0.866302
-0.126064 -0.224113 -0.249936 0.090406 -0.659758 -0.746020
-0.324418 -0.164383 -0.385657 -0.115393 0.338183 -0.933979
-0.338051 -0.030824 -0.329483 -0.333041 0.123449 -0.934796
-0.321692 0.095026 0.183231 0.603110 -0.537793 0.589098
0.074659 0.000252 0.154790 0.053323 0.229149 0.971930
-0.444732 0.454290 0.265948 0.250743 0.852237 -0.459151
-0.561629 0.123712 0.355910 -0.731975 -0.635459 -0.245772
-0.008577 -0.138283 0.116954 -0.139288 -0.392707 0.909054
-0.294137 0.291584 -0.109528 -0.177445 0.719210 -0.671752
0.071399 0.216912 -0.087408 -0.006884 0.980081 -0.198478
-0.576812 0.305436 0.121707 -0.756563 0.151623 -0.636100
-0.350156 -0.393208 -0.434138 0.644037 -0.737788 0.202198
0.066396 -0.236968 0.053661 0.343175 -0.812876 0.470598
-0.538005 0.160731 0.222860 -0.642266 -0.709239 -0.290643
-0.214778 -0.270163 0.037194 0.729089 -0.634511 -0.256565
-0.472592 0.097550 0.228800 0.428948 -0.867725 0.251111
0.402323 0.034776 0.150264 -0.552937 0.092584 0.828063
-0.280606 -0.137335 -0.377437 -0.036836 0.315661 -0.948157
0.694535 0.081543 0.068689 0.992684 0.120685 -0.003715
-0.526560 0.268965 -0.027219 -0.334467 0.325735 -0.884324
-0.188796 -0.174877 -0.324685 0.520784 -0.844296 -0.126287
0.512895 -0.516138 0.268868 -0.904087 0.285677 0.317829
-0.527272 0.447304 0.232812 0.301787 0.822310 -0.482422
-0.278296 -0.142275 -0.379171 -0.036836 0.315661 -0.948157
0.497052 -0.394562 -0.271029 0.686913 -0.594072 -0.418604
0.397242 0.066485 0.147375 -0.088942 -0.091317 0.991842
-0.179549 -0.038572 -0.347949 0.263340 0.019609 -0.964504
-0.525126 0.097154 0.194959 -0.890788 0.152663 -0.428008
-0.492850 0.125978 0.445464 0.939171 -0.337337 -0.064506
-0.302939 0.401909 0.107390 0.569918 0.782784 -0.249885
-0.360744 -0.324308 -0.456604 0.241082 -0.047685 -0.969333
-0.611174 0.353197 0.130233 0.324717 0.037193 -0.945080
-0.525591 -0.460449 -0.020716 0.485797 -0.712286 0.506606
-0.103421 -0.294796 -0.069987 0.116964 -0.991423 0.058316
0.239620 0.133885 0.079238 -0.001710 0.543095 0.839670
0.134963 0.170145 -0.184602 0.119082 0.756673 -0.642858
-0.310930 -0.290826 -0.151006 -0.156545 -0.986825 -0.040859
-0.326742 0.002981 0.175784 -0.260555 -0.215887 0.941012
-0.461288 -0.359673 -0.040368 0.175397 0.208494 -0.962168
-0.315199 0.435531 0.377671 0.069857 0.997544 -0.005137
-0.297953 0.302355 -0.095588 -0.192154 0.800565 -0.567602
0.783924 0.307454 0.203761 -0.006974 -0.982827 0.184398
0.155032 0.198873 -0.118358 -0.014340 0.933475 -0.358355
-0.453403 -0.069735 -0.143823 -0.635758 0.258118 -0.727452
0.567179 -0.201237 0.108793 -0.396960 -0.833717 -0.383848
-0.400088 -0.221048 -0.129753 -0.395346 -0.787892 0.472153
-0.349649 -0.185951 -0.381907 -0.763100 0.437531 -0.475651
-0.277588 0.413099 0.360077 0.481410 0.750906 -0.452090
0.279973 0.110808 -0.212838 0.257144 0.409059 -0.875527
-0.253946 0.431026 0.471500 -0.099228 0.981663 0.162763
-0.105346 -0.157376 -0.297204 -0.045688 -0.382079 -0.923000
-0.223091 -0.310956 -0.210756 0.366768 0.116854 -0.922944
0.534465 0.115276 0.146134 -0.099967 0.385884 0.917115
-0.287034 0.090952 -0.283576 -0.131895 0.484462 -0.864812
-0.436504 -0.024924 0.054926 -0.593018 -0.683082 0.426296
-0.402326 0.393798 0.385893 0.602499 -0.160964 0.781720
-0.055046 0.255080 -0.091469 0.291071 0.928619 -0.230096
-0.439697 -0.399418 -0.028571 0.664284 -0.176192 -0.726418
-0.341849 -0.055938 0.167022 -0.656841 0.217256 0.722052
-0.102474 -0.296257 -0.164101 0.440735 -0.270387 -0.855946
-0.464591 0.218256 -0.115369 -0.590225 0.343436 -0.730538
-0.750018 0.352183 0.219729 -0.387054 -0.595226 -0.704198
0.449814 0.216648 -0.094032 -0.066048 0.910783 -0.407568
-0.515104 0.163068 0.488156 -0.043361 0.372860 0.926874
0.217848 -0.305949 -0.124484 -0.229420 -0.970956 -0.067908
-0.432273 -0.400290 -0.005531 0.521897 -0.849566 0.076564
-0.698301 0.365526 0.222227 -0.236803 -0.952870 0.189641
0.394120 0.162614 -0.200215 0.135718 0.615462 -0.776394
0.195863 -0.068801 0.144272 0.222161 -0.367936 0.902922
-0.206218 -0.304619 -0.199638 0.822891 0.141963 -0.550179
0.247916 0.162513 0.063332 -0.209688 0.812891 0.543359
-0.197851 -0.211298 -0.270757 0.125981 -0.664106 -0.736948
-0.442232 0.138179 -0.134581 -0.673536 0.462907 -0.576252
-0.173692 0.301564 -0.036231 0.468712 0.864641 -0.180846
0.665851 0.022130 -0.090027 0.948035 -0.282375 -0.146609
-0.631385 0.318672 0.330010 -0.831442 0.258271 0.491935
0.288775 0.198434 -0.137395 -0.171223 0.618870 -0.766605
-0.183222 0.200721 -0.206084 0.060531 0.605862 -0.793264
-0.232049 0.075354 0.172641 0.306391 -0.112084 0.945284
0.796317 0.326111 0.090149 0.844950 0.290512 -0.449068
-0.319374 0.274658 0.245318 0.569817 0.051904 0.820131
-0.334137 0.434117 0.574089 -0.150977 -0.690202 0.707691
-0.369431 0.125167 0.229143 0.043080 -0.762010 0.646131
-0.320310 -0.120148 -0.364145 -0.307140 0.533008 -0.788396
-0.151193 -0.026741 -0.337088 0.564773 0.320482 -0.760475
0.321470 -0.152902 0.068192 0.355088 -0.882843 0.307411
-0.043216 -0.096902 -0.304708 -0.002251 -0.037243 -0.999304
0.668459 -0.374629 0.220057 0.341534 0.225472 0.912424
0.506444 -0.387439 -0.264705 0.685045 -0.687296 -0.241530
-0.287329 -0.024521 -0.346722 -0.333041 0.123449 -0.934796
-0.042898 0.207134 -0.157798 0.185224 0.700030 -0.689674
-0.234079 -0.141819 0.148677 0.079418 -0.461996 0.883319
-0.308177 0.143927 -0.245345 -0.179060 0.668253 -0.722064
-0.347520 -0.285614 -0.181570 -0.531573 -0.781304 0.327099
0.038832 -0.266377 0.000355 0.199889 -0.931353 0.304346
-0.171868 0.028224 -0.318037 0.008328 0.537851 -0.842999
-0.146073 -0.138607 -0.328720 0.757916 -0.626346 0.182356
0.720331 0.520505 0.333730 0.616949 -0.432447 0.657544
-0.083431 -0.125831 -0.305430 0.068332 -0.035059 -0.997046
0.551636 -0.188397 0.193136 -0.299791 -0.145202 0.942890
-0.237011 0.387848 0.397954 0.980591 0.058529 -0.187126
-0.614570 0.331905 0.253439 -0.975488 -0.096683 -0.197675
0.162411 -0.174195 0.107289 0.018600 -0.435351 0.900069
0.629952 0.424918 0.321471 -0.132408 -0.373254 0.918232
-0.457424 -0.564732 -0.524869 0.227184 -0.926036 0.301404
-0.087463 0.210081 -0.169012 0.218374 0.696540 -0.683480
-0.120697 0.272766 -0.103140 0.291071 0.928619 -0.230096
0.480894 -0.037927 0.181857 -0.056610 -0.069044 0.996006
-0.241843 -0.293403 -0.210956 0.222407 0.270299 -0.936736
-0.469260 0.400683 0.395161 -0.082750 0.630707 0.771596
-0.017748 0.235841 0.000446 0.410991 0.884061 0.222539
-0.348678 0.215982 -0.166412 -0.326802 0.367629 -0.870660
0.689857 0.430854 0.291892 0.749552 0.220115 -0.624276
-0.386522 -0.002201 -0.253011 -0.939048 0.079821 -0.334391
0.481617 -0.167327 0.126224 -0.312093 -0.815466 -0.487456
0.141462 0.113079 -0.245997 0.211960 0.638793 -0.739605
0.711551 0.323714 0.240532 -0.198479 -0.954637 -0.221977
-0.444700 0.173685 0.400368 0.848039 -0.064240 0.526026
-0.384664 0.175888 0.306754 0.911077 -0.313321 0.267896
-0.483519 -0.553855 -0.523528 -0.452034 -0.521793 0.723462
0.694614 -0.068485 0.096274 0.978106 -0.200397 0.056124
0.430518 -0.075028 0.153871 -0.537191 -0.215254 0.815531
0.397467 -0.486241 -0.350904 0.415606 0.398345 -0.817675
-0.429223 -0.441053 -0.470367 -0.317518 -0.500433 0.805449
-0.128344 0.281810 -0.084849 0.307890 0.897634 -0.315368
0.700684 0.031988 0.083742 0.785195 -0.006017 0.619219
0.054356 -0.171734 0.111286 -0.032188 -0.421148 0.906420
0.555781 -0.091555 -0.223368 0.503300 -0.032534 -0.863499
0.692183 0.555922 0.330023 0.065453 0.692084 -0.718843
-0.488685 -0.337462 -0.017469 -0.678726 0.700002 -0.222100
0.304762 -0.194917 -0.094534 0.468791 -0.044800 -0.882172
0.534908 -0.191040 -0.185331 0.146484 -0.411604 0.899513
0.663879 -0.118391 0.052056 0.499224 -0.676975 -0.540815
0.537713 -0.528502 0.225059 0.239702 -0.933102 -0.268074
0.629432 -0.459716 0.252698 0.425995 0.200957 0.882125
-0.499733 0.079377 0.211281 0.437054 -0.881167 0.180358
-0.231566 -0.149319 -0.378015 0.402203 0.035455 -0.914864
0.731177 -0.279282 0.186117 0.737785 0.074660 0.670895
-0.456635 -0.057115 -0.061301 -0.402400 -0.844137 0.354270
0.714787 -0.267183 0.201019 0.431572 -0.048748 0.900760
-0.004077 -0.021256 -0.309782 0.238809 0.043352 -0.970098
0.446616 -0.441675 -0.286488 0.667637 -0.684681 0.292358
0.428061 -0.405682 -0.306486 0.108284 0.598455 -0.793805
-0.441439 0.223141 0.414397 0.759159 0.054568 0.648613
-0.540145 0.264338 -0.012881 -0.928120 -0.092311 -0.360655
-0.342545 0.440272 0.550174 -0.775541 -0.198627 -0.599236
0.641889 0.530664 0.310267 -0.400641 0.266487 -0.876625
-0.255763 0.378410 0.448750 -0.322649 -0.927060 0.190936
0.401524 0.227345 0.004960 -0.023014 0.924424 0.380672
-0.189844 -0.234511 0.072904 0.604751 -0.679340 0.415659
-0.187646 -0.175174 -0.317962 0.520784 -0.844296 -0.126287
-0.127834 -0.229759 -0.245157 0.090406 -0.659758 -0.746020
0.249608 -0.022923 -0.244674 0.328877 0.011610 -0.944301
0.452179 -0.126407 -0.270512 0.098542 0.037509 -0.994426
0.694929 -0.316897 0.140208 -0.246370 -0.299365 -0.921782
0.294418 -0.211272 -0.068123 0.355279 -0.782629 0.511145
0.449843 0.053647 -0.243284 0.352110 0.514272 -0.782012
-0.427352 -0.037782 -0.180233 -0.946886 -0.004669 -0.321536
0.591854 0.478695 0.331689 -0.646912 0.057353 0.760404
-0.255147 -0.104331 -0.367438 -0.036836 0.315661 -0.948157
0.598652 -0.498327 0.195265 0.339787 -0.887310 -0.311810
-0.605178 0.321308 0.216965 -0.804474 -0.529101 -0.269953
-0.633583 0.422927 0.265185 -0.450141 0.639851 0.622867
0.486902 0.228944 -0.059883 -0.026719 0.944198 -0.328293
0.637412 0.145404 -0.126257 0.583853 0.276394 -0.763362
0.687045 0.527456 0.316289 0.297168 0.219882 -0.929162
-0.045050 -0.048008 -0.309374 0.028783 -0.129614 -0.991147
0.551109 -0.456049 0.214363 -0.726344 0.542759 -0.421706
-0.610856 -0.475153 -0.066954 -0.276471 0.514912 -0.811436
-0.492874 0.107630 -0.058031 -0.851015 -0.174013 -0.495473
-0.465352 -0.519242 -0.502202 -0.205679 -0.223756 0.952696
-0.297055 0.370240 0.369708 -0.177605 -0.931559 0.317260
0.287218 -0.008088 0.126712 -0.037757 -0.227575 0.973028
0.661192 -0.167272 0.097147 0.792138 -0.348962 -0.500742
-0.279650 0.417742 0.534721 0.627395 0.037726 0.777787
0.361928 -0.138569 0.099395 -0.284807 -0.637204 0.716139
-0.230782 -0.133999 0.152471 0.079418 -0.461996 0.883319
-0.125019 0.189258 -0.206063 0.253976 0.663344 -0.703897
0.440129 0.212569 -0.109293 0.051703 0.990863 -0.124570
-0.048460 -0.260223 0.023214 0.024852 -0.935308 0.352960
-0.502485 0.424333 0.115099 -0.581331 0.783980 -0.217782
0.533635 0.175046 0.091599 0.069436 0.872982 0.482784
-0.501055 -0.535841 -0.591646 -0.346771 0.644897 -0.681071
0.110491 -0.266817 -0.110362 0.214037 -0.975564 0.049635
0.167918 0.061644 0.125671 0.194513 0.345870 0.917899
-0.338071 -0.250773 -0.328602 -0.416454 -0.467233 0.779910
-0.507514 0.449770 0.332026 -0.334543 0.641148 0.690660
-0.318405 0.407723 0.185487 0.567480 0.797570 0.204570
-0.212470 -0.193873 -0.317268 0.745542 -0.666002 0.024688
0.586549 -0.095542 0.184492 0.168903 0.167223 0.971344
-0.435549 0.451284 0.230554 0.379737 0.890362 0.251106
-0.005693 -0.284932 -0.114053 0.136502 -0.988755 0.061082
0.610745 0.407838 0.282695 -0.477986 0.007392 -0.878337
0.187733 -0.222593 -0.152654 0.239265 -0.720240 -0.651158
-0.164390 -0.302097 -0.074284 -0.159827 -0.970957 0.178041
-0.314533 -0.113853 -0.362140 -0.307140 0.533008 -0.788396
-0.019339 -0.263054 0.013662 0.024852 -0.935308 0.352960
0.536464 -0.524494 0.210119 -0.303251 -0.051004 -0.951545
0.675868 0.031839 -0.042919 0.958887 -0.253032 -0.128496
0.452964 -0.151123 0.105040 -0.171322 -0.909756 -0.378143
0.034400 -0.271494 -0.012488 0.024852 -0.935308 0.352960
-0.573226 0.221385 0.202191 -0.884419 -0.347887 -0.311090
0.565738 0.010434 0.180261 0.016531 0.057168 0.998228
-0.457250 -0.363150 0.034012 -0.393662 0.122982 0.910992
-0.035513 -0.275758 -0.012149 0.146346 -0.831378 0.536091
0.303092 -0.116054 -0.191381 0.125307 -0.863089 -0.489261
-0.312472 -0.291704 -0.106592 -0.106449 -0.991347 0.076815
0.472524 0.003069 -0.250828 0.309780 0.079914 -0.947444
0.558892 -0.320148 -0.249269 0.548191 0.017480 -0.836170
-0.590917 0.348412 0.385170 -0.587273 0.600675 0.542494
0.573237 -0.153746 -0.181010 0.692692 -0.660557 0.289556
-0.288442 0.137054 -0.255526 -0.141848 0.524713 -0.839378
0.811439 0.314849 0.155860 0.924883 -0.156263 0.346659
0.635962 0.145337 -0.127391 0.583853 0.276394 -0.763362
0.072348 -0.231468 0.058822 0.343175 -0.812876 0.470598
0.521883 -0.189694 0.169435 -0.618643 -0.392077 0.680849
-0.100539 0.177798 -0.208030 0.253976 0.663344 -0.703897
-0.203657 0.016494 -0.327198 0.151592 0.360768 -0.920253
0.162796 -0.163276 -0.236997 0.442820 -0.681386 -0.582772
0.237630 0.130384 -0.201632 0.172389 0.703262 -0.689714
0.003936 -0.154916 -0.294609 0.071025 -0.527485 -0.846590
-0.373176 -0.394077 -0.415250 0.488617 -0.662542 0.567708
-0.617756 0.349545 0.213183 -0.154556 -0.956663 0.246795
-0.339767 0.007595 0.173236 -0.260555 -0.215887 0.941012
0.742705 0.323050 0.208967 -0.571589 -0.809908 -0.131660
-0.506371 -0.354421 0.001098 -0.521834 0.629368 0.575834
0.661984 0.083515 0.120576 0.410167 0.145833 0.900275
-0.422110 0.027085 0.130268 -0.313406 -0.696308 0.645703
0.358688 -0.113475 -0.228287 -0.740932 -0.598124 -0.305399
-0.568667 0.389047 0.359969 -0.386664 0.658346 0.645810
0.254408 0.128248 0.083044 -0.043439 0.529645 0.847106
-0.022025 0.166620 -0.207605 0.039020 0.848664 -0.527491
-0.266053 -0.283085 -0.034099 -0.124313 -0.982532 0.138481
0.519867 0.247303 -0.016504 -0.071393 0.821875 -0.565177
0.074161 -0.223943 -0.201063 0.248039 -0.615285 -0.748266
-0.370691 -0.254328 -0.149366 -0.662557 -0.663152 0.348205
-0.441875 0.376233 0.418581 0.019766 0.720158 0.693528
-0.515653 0.084434 0.313260 0.202235 -0.970031 0.134687
0.604025 0.207834 0.052224 0.080067 0.691132 0.718279
-0.737862 0.360744 0.267504 0.347078 -0.793037 0.500629
0.582404 -0.240564 -0.059642 0.233973 -0.901132 -0.364989
0.279502 -0.205971 -0.041261 0.409573 -0.869217 0.276970
-0.374176 -0.182764 -0.231794 -0.731461 -0.343354 -0.589129
-0.578613 -0.503265 -0.079369 0.627104 0.098916 -0.772630
-0.157432 -0.204285 -0.270556 0.086665 -0.648433 -0.756323
-0.324407 0.376096 0.014451 0.464940 0.728996 -0.502389
0.209970 0.215767 -0.072424 0.103787 0.971929 -0.211146
-0.324611 -0.257343 0.091392 -0.147097 -0.462534 0.874314
-0.362100 -0.233232 -0.338239 -0.699012 -0.245150 0.671777
-0.003040 0.228373 0.006517 0.226323 0.906086 0.357471
-0.153172 -0.140464 -0.346900 0.842347 -0.398283 -0.363075
0.699188 0.011074 0.043923 0.983848 0.012725 -0.178551
0.485974 -0.163733 -0.140632 -0.015994 -0.480230 0.876997
-0.457486 0.426500 0.069659 -0.316517 0.835346 -0.449460
-0.313542 -0.174405 -0.390630 -0.115393 0.338183 -0.933979
-0.338133 0.425365 0.556248 -0.606597 -0.790182 0.087475
-0.090293 0.203921 0.096095 0.447628 0.408221 0.795603
0.631293 -0.039423 -0.167427 0.747211 -0.200320 -0.633678
0.193017 -0.210589 -0.163989 0.239265 -0.720240 -0.651158
-0.593895 0.229608 0.323917 -0.928217 0.025627 0.371157
-0.331052 -0.278184 0.084929 0.084247 -0.055091 0.994921
0.618955 0.129184 0.124078 0.230543 0.809382 0.540140
0.299215 -0.197409 -0.043543 0.409573 -0.869217 0.276970
0.677537 0.095752 -0.105200 0.836998 0.319459 -0.444275
-0.044878 -0.263890 -0.183953 0.221478 -0.849070 -0.479613
-0.373369 -0.235234 -0.360175 -0.947859 0.311635 -0.066692
-0.130616 -0.083007 -0.316912 0.705598 -0.208877 -0.677127
-0.202760 -0.229911 -0.254823 0.125981 -0.664106 -0.736948
-0.616131 -0.524410 -0.036219 -0.134183 -0.068053 0.988617
-0.254458 0.406219 0.514960 0.627395 0.037726 0.777787
0.431905 -0.142443 0.022722 0.036964 -0.993667 0.106107
0.668970 0.141706 0.073302 0.815731 0.576738 -0.044241
-0.531407 0.205587 -0.020793 -0.843901 -0.471955 -0.255126
-0.295490 0.007810 -0.329531 -0.131768 0.496726 -0.857846
-0.435253 -0.075416 -0.017725 -0.984316 0.158770 -0.076898
0.678738 0.110569 0.092391 0.741846 0.221901 0.632790
-0.284758 -0.230224 -0.402600 0.410386 -0.013881 -0.911806
0.089609 0.165186 0.047403 0.098841 0.786688 0.609387
0.599322 0.193902 -0.104919 0.165588 0.849566 -0.500818
-0.382003 -0.325471 0.064374 -0.067452 -0.356083 0.932017
0.240347 -0.226997 -0.051969 0.346383 -0.885073 0.310908
-0.360340 -0.200473 -0.330718 -0.921936 0.226718 0.314058
0.541044 -0.139370 -0.108602 0.187599 -0.912659 0.363127
0.676799 -0.030208 0.007194 0.921286 -0.215415 -0.323772
0.281041 0.192341 0.029933 -0.147338 0.847453 0.510014
-0.486173 -0.330094 0.000715 -0.701833 0.707196 -0.085471
-0.328669 -0.246009 -0.410181 -0.021803 0.393648 -0.919002
-0.150612 -0.020301 -0.333943 0.564773 0.320482 -0.760475
-0.508676 -0.553543 -0.560525 -0.816805 0.527396 -0.233846
-0.345057 0.335836 0.310751 0.836173 -0.540435 -0.093511
0.243239 -0.229809 -0.124174 0.148444 0.277724 -0.949123
-0.381222 -0.188875 -0.218869 -0.848754 -0.383134 -0.364451
-0.430051 0.446846 0.137540 -0.065848 0.992503 -0.102961
0.653660 -0.444639 0.199752 0.953660 -0.215837 -0.209635
-0.337916 -0.333275 -0.366962 0.202045 -0.603470 0.771363
0.397337 0.192103 -0.177535 0.102499 0.816142 -0.568689
-0.578760 -0.504136 -0.032329 0.350912 -0.068340 0.933911
-0.631291 0.315809 0.327905 -0.786835 -0.616933 -0.016849
-0.620095 0.338412 0.295931 -0.988154 -0.022375 -0.151826
-0.287415 0.015435 -0.326356 -0.131768 0.496726 -0.857846
-0.003712 -0.032519 0.152482 -0.285721 -0.056310 0.956657
-0.324021 -0.037612 0.170348 -0.300991 0.129445 0.944801
-0.799170 0.393187 0.369668 -0.561388 -0.497803 0.661087
-0.415929 0.229679 -0.133198 -0.297943 0.601882 -0.740924
0.063803 0.179085 -0.175563 0.185600 0.862097 -0.471530
0.715170 0.565782 0.345280 0.100945 0.953035 0.285542
0.358286 -0.485268 -0.367158 0.263200 0.208776 -0.941880
0.690446 -0.067838 0.070920 0.949641 -0.301366 -0.085792
-0.237854 0.223853 -0.187546 -0.034330 0.535426 -0.843884
0.380223 0.225136 0.009037 -0.023014 0.924424 0.380672
0.403829 0.217705 0.028510 -0.023014 0.924424 0.380672
-0.362902 -0.209537 -0.382340 -0.763100 0.437531 -0.475651
-0.419340 0.397071 0.016856 -0.212234 0.668816 -0.712490
-0.460078 0.339362 -0.021575 -0.416102 0.587514 -0.694036
0.477701 -0.153225 -0.268445 -0.226984 -0.454258 -0.861469
-0.300757 0.356961 -0.019705 0.455361 0.808220 -0.373399
-0.796848 0.360421 0.286708 -0.925538 -0.378571 0.007910
-0.405454 0.276174 0.393894 0.249194 -0.895475 0.368819
-0.021977 0.245772 -0.067844 0.371221 0.922439 -0.106305
-0.519528 0.456277 0.253451 0.282489 0.851391 -0.441965
-0.425497 -0.550571 -0.535816 0.226787 -0.831115 -0.507755
0.098338 -0.095386 0.146731 0.018600 -0.435351 0.900069
-0.610887 0.288590 0.276113 -0.895822 -0.227453 -0.381796
-0.551149 0.447055 0.306967 -0.324961 0.929583 0.173998
-0.240469 0.393898 0.477385 0.877833 -0.228963 0.420697
0.286336 -0.013174 -0.232083 0.312183 0.042280 -0.949081
0.581160 -0.131381 0.001326 0.103641 -0.993026 -0.056191
-0.256447 -0.249161 -0.376475 0.755524 -0.510169 -0.410987
-0.442447 0.031584 0.125064 -0.453565 -0.542641 0.706979
-0.243587 -0.213057 0.120144 0.132181 -0.340421 0.930936
-0.350601 -0.139441 -0.329508 -0.970043 0.230738 0.076006
0.051349 -0.126203 0.131355 -0.139288 -0.392707 0.909054
-0.387632 -0.232400 -0.207385 -0.559188 0.049922 -0.827536
0.690288 -0.289704 0.200811 -0.263804 0.053567 0.963088
-0.046356 0.247649 0.006372 0.410991 0.884061 0.222539
0.446076 -0.214075 -0.245011 -0.235206 -0.186224 -0.953939
-0.437973 -0.550858 -0.553733 0.334188 -0.921950 -0.195774
-0.637977 -0.568700 -0.089237 -0.000000 -1.000000 -0.000000
-0.603409 0.290641 0.381800 -0.776594 -0.625546 -0.074793
-0.307398 0.409739 0.509947 -0.691005 -0.650428 -0.315366
0.686444 -0.244455 0.197830 -0.039120 0.468864 0.882404
0.021471 -0.110865 -0.300317 0.083147 -0.104258 -0.991068
0.759540 -0.293024 0.148603 0.911432 -0.409462 -0.040399
-0.389433 0.157007 -0.180004 -0.650201 0.436406 -0.621923
-0.589626 0.140249 0.466612 -0.736531 -0.537789 0.410250
0.425333 -0.078862 -0.265996 0.019917 0.133174 -0.990893
0.424504 0.010053 0.166799 -0.475389 0.026304 0.879382
0.349379 0.145052 -0.211992 -0.653543 0.352794 -0.669641
0.397213 0.124701 -0.219902 0.137909 0.392671 -0.909280
-0.002764 -0.174981 0.101991 -0.139288 -0.392707 0.909054
-0.501465 0.163773 -0.064889 -0.774990 -0.201070 -0.599134
0.477555 -0.207888 -0.164486 -0.244527 -0.518170 0.819577
0.400858 0.210189 -0.144529 0.051703 0.990863 -0.124570
-0.225272 -0.187122 -0.376167 0.413711 -0.003794 -0.910400
-0.363273 0.066409 0.177843 0.204942 -0.484395 0.850506
0.249342 -0.254521 -0.117974 0.500983 -0.249465 -0.828724
0.560357 -0.212536 -0.067621 -0.750763 -0.504627 -0.426271
-0.372862 0.445801 0.121989 0.173616 0.894225 -0.412576
-0.257057 0.096729 0.179394 0.013450 0.228884 0.973361
-0.590811 0.259365 0.389412 -0.922313 -0.232192 0.308910
-0.549874 0.390799 0.137534 -0.402148 0.823658 -0.399831
-0.612859 0.429827 0.213697 -0.115571 0.922926 -0.367219
0.662310 0.090685 0.118623 0.741846 0.221901 0.632790
-0.445328 0.073505 0.171629 -0.592936 -0.332894 0.733218
0.580793 -0.128128 -0.151055 0.704419 -0.482393 0.520663
0.656510 0.172756 -0.071622 0.725503 0.630843 -0.275104
0.317178 -0.529296 -0.296733 0.140929 -0.961969 0.233996
0.209234 0.204926 -0.013845 -0.034608 0.798080 0.601557
0.013883 -0.001953 0.147924 -0.028760 0.182862 0.982718
-0.498327 0.435247 0.210217 -0.039311 0.962032 -0.270090
-0.523344 0.159646 0.198194 -0.540670 -0.509366 -0.669494
-0.303183 -0.216836 -0.266106 -0.128142 -0.634188 -0.762487
-0.772167 0.405282 0.359800 0.986698 0.142902 -0.077495
-0.356506 -0.279380 -0.421319 -0.493398 0.329202 -0.805099
0.606542 -0.121295 0.184633 0.194205 0.150570 0.969336
0.385234 -0.419328 -0.319720 0.005516 0.581952 -0.813204
0.538089 -0.484893 0.209122 -0.350138 0.034313 -0.936069
0.352224 -0.155305 -0.091945 0.197352 -0.960237 -0.197478
-0.797666 0.361657 0.287574 -0.841394 -0.539248 -0.035593
0.401232 0.076011 -0.243488 -0.431853 0.306287 -0.848346
0.493913 -0.250405 -0.251913 -0.141566 0.186620 -0.972179
-0.119556 -0.002219 -0.318093 0.348855 0.431837 -0.831755
-0.121205 -0.188690 0.076221 0.022446 -0.432044 0.901573
-0.176914 -0.136252 -0.361652 0.265584 0.245097 -0.932412
0.243937 -0.265317 -0.102916 0.563726 -0.653390 0.505266
0.219102 -0.196863 -0.156039 0.563104 -0.525854 -0.637489
-0.333802 0.450236 0.546474 0.126648 0.982407 -0.137246
-0.451704 -0.083599 -0.085261 -0.755986 -0.376213 0.535676
-0.654083 0.363040 0.116109 0.145449 0.304668 -0.941288
0.655013 0.179312 -0.022285 0.866773 0.226239 -0.444433
-0.510280 0.146103 0.157196 -0.808858 -0.544337 0.222362
0.386562 0.092764 0.146543 -0.091545 0.038287 0.995065
-0.215004 0.334132 0.329994 -0.368206 -0.567048 0.736805
-0.691938 0.410606 0.202547 -0.170301 0.785670 -0.594744
-0.385142 0.443340 0.111487 0.173616 0.894225 -0.412576
-0.293409 0.282034 -0.119946 -0.177445 0.719210 -0.671752
-0.778319 0.355071 0.238172 -0.378325 -0.828365 -0.413136
-0.106587 -0.294063 -0.051174 0.116964 -0.991423 0.058316
-0.578215 0.143083 0.377623 -0.674830 -0.727361 -0.124697
-0.024597 0.228495 -0.131201 0.185224 0.700030 -0.689674
-0.062047 0.253515 -0.106639 0.291071 0.928619 -0.230096
0.228417 -0.070214 0.129231 0.403144 -0.010253 0.915079
-0.415882 0.356748 0.414718 0.623117 0.230596 0.747363
-0.210728 0.320516 -0.003348 0.358680 0.930589 -0.073162
0.094077 0.177038 -0.172798 -0.014340 0.933475 -0.358355
-0.425905 -0.171012 -0.034158 -0.865573 -0.500780 0.001618
-0.301061 -0.198785 -0.400586 -0.110248 0.235929 -0.965496
-0.405221 0.311469 -0.071133 -0.311445 0.591281 -0.743901
-0.102838 -0.134564 0.102095 -0.472218 -0.232213 0.850346
-0.229734 0.264948 0.156125 0.798780 0.368630 0.475460
0.581009 -0.255992 -0.214405 0.939391 0.282390 -0.194422
-0.603988 0.412179 0.307626 -0.623138 0.428085 0.654556
-0.533514 -0.373665 -0.030819 -0.718286 0.686402 -0.113660
0.555915 0.004148 0.180000 -0.135012 0.153145 0.978937
-0.125893 0.040354 0.167349 0.285677 0.077301 0.955203
0.346031 -0.038247 0.121524 -0.404900 -0.240436 0.882183
-0.323637 -0.283531 -0.119006 -0.377697 -0.876955 -0.297143
0.597216 -0.229469 -0.041850 0.420233 -0.513723 0.747992
-0.335473 0.407958 0.232139 0.570013 0.797032 0.199562
-0.505550 0.017705 0.003142 -0.980444 -0.118148 -0.157385
-0.392674 -0.504513 -0.559799 0.642983 -0.505830 -0.575073
0.295538 -0.143973 0.093053 0.119549 -0.155315 0.980604
-0.224818 0.263253 0.145157 0.878699 0.312173 0.361160
0.672490 -0.197204 0.117637 0.508148 0.043553 -0.860168
-0.410866 0.288896 0.410963 0.543896 -0.151684 0.825330
0.628582 0.224616 -0.046158 0.753362 0.465190 -0.464806
0.667090 0.015262 -0.070226 0.923100 0.298127 -0.242915
-0.396548 0.344935 -0.050007 -0.383898 0.614471 -0.689237
-0.243737 0.373749 0.382902 -0.236751 -0.465022 0.853055
0.391378 -0.118539 -0.255533 -0.423366 -0.120958 -0.897848
0.304119 -0.528489 -0.341566 0.244032 -0.936936 -0.250198
0.642450 0.151402 -0.120233 0.583853 0.276394 -0.763362
-0.249172 0.403231 0.375563 0.684854 0.621391 -0.380589
-0.508821 0.039041 0.105643 0.040490 -0.830716 0.555221
0.077896 0.223458 -0.059360 0.425773 0.799119 -0.424414
-0.259893 -0.228312 0.107944 -0.170566 -0.617414 0.767924
0.615670 -0.029090 0.171516 0.438105 0.148379 0.886593
-0.168460 -0.168263 -0.301781 -0.000238 -0.498296 -0.867007
-0.466884 0.121868 0.298858 0.722764 -0.665545 0.186177
-0.797524 0.363708 0.317858 -0.777954 -0.595235 0.201205
-0.329869 -0.332895 -0.370438 0.492487 -0.544080 0.679289
-0.569440 0.175777 0.280353 -0.818219 -0.572311 -0.054559
0.238065 -0.129782 -0.220581 0.422238 -0.683381 -0.595572
0.627258 -0.442713 0.250504 -0.017301 0.397503 0.917438
0.503717 -0.186373 0.151885 -0.694688 -0.412834 0.589047
0.641997 -0.180607 0.185737 0.462010 0.245993 0.852077
0.421153 0.212335 -0.119036 0.051703 0.990863 -0.124570
-0.147518 -0.117674 0.141115 0.536747 -0.244427 0.807563
0.181004 -0.237505 -0.138633 0.239265 -0.720240 -0.651158
-0.275967 0.103854 0.177298 -0.306366 0.410146 0.859023
-0.182090 0.188607 -0.215250 0.060531 0.605862 -0.793264
0.475227 -0.300644 -0.221238 -0.992897 -0.080890 -0.087246
0.611246 0.502748 0.315365 -0.433654 0.456316 -0.776994
0.517270 -0.477610 0.233151 -0.756978 0.653363 -0.010065
-0.448099 -0.510943 -0.578410 0.084990 0.675488 -0.732457
-0.583089 -0.512793 -0.085889 0.133539 0.399263 -0.907059
0.746448 0.288636 0.048605 0.436377 -0.870084 -0.229192
-0.377243 -0.108355 -0.249932 -0.959230 -0.153905 -0.237048
-0.246964 0.091196 -0.291559 -0.023218 0.652553 -0.757387
-0.427410 -0.532720 -0.498852 0.146004 -0.800893 0.580735
-0.654484 -0.506251 -0.092739 0.068526 0.534932 -0.842111
0.643456 0.121920 -0.130138 0.583853 0.276394 -0.763362
0.638418 -0.191896 0.095909 0.218711 -0.281595 -0.934275
0.316556 -0.524336 -0.344992 0.244032 -0.936936 -0.250198
0.049432 0.162661 0.056843 0.045492 0.696662 0.715955
0.072302 0.066312 0.129215 0.008383 0.591174 0.806500
0.050934 -0.259392 0.013782 0.199889 -0.931353 0.304346
0.327235 -0.141539 -0.140239 0.125307 -0.863089 -0.489261
-0.095341 0.239558 -0.141391 0.170010 0.782485 -0.599011
-0.110109 -0.092696 -0.307179 0.089199 -0.278442 -0.956302
-0.279569 -0.280165 -0.013830 0.049050 -0.991538 0.120197
-0.333269 -0.076326 -0.347090 -0.145768 0.070478 -0.986805
-0.318271 0.408509 0.543763 -0.610219 -0.782493 0.123843
0.487325 0.123627 0.141341 -0.005257 0.191222 0.981533
-0.000495 -0.002890 -0.308079 0.238809 0.043352 -0.970098
0.641455 -0.057753 -0.149200 0.772788 -0.202578 -0.601466
-0.335895 -0.091093 -0.342298 -0.598509 -0.489898 -0.633867
0.197686 0.118769 0.088929 -0.001710 0.543095 0.839670
-0.361863 0.396089 0.381045 -0.118871 -0.540464 0.832928
-0.283213 0.252959 0.224939 0.641869 -0.082428 0.762371
-0.469995 -0.560163 -0.549866 0.219738 -0.919770 -0.325175
-0.460844 -0.472540 -0.535758 -0.730619 0.672294 -0.119233
0.307051 -0.048816 -0.226857 0.312183 0.042280 -0.949081
0.568606 -0.248252 -0.193077 -0.165438 -0.046133 0.985141
0.070394 0.098081 -0.264445 0.171932 0.520814 -0.836177
-0.646491 0.424851 0.238703 -0.068799 0.994316 -0.081260
-0.023454 -0.168542 0.101401 -0.155196 -0.407507 0.899918
0.608188 0.189670 -0.109166 0.165588 0.849566 -0.500818
-0.499575 0.375589 0.403293 -0.220255 0.493803 0.841217
-0.489249 0.437566 0.217156 -0.039311 0.962032 -0.270090
0.379934 -0.507592 -0.315874 0.496710 -0.867403 -0.029844
-0.398249 -0.235150 0.085476 -0.382885 -0.641201 0.665027
-0.227952 -0.282075 0.064542 0.231343 -0.632163 0.739493
-0.435565 -0.268594 0.023229 -0.877867 -0.001087 -0.478903
-0.230784 0.307237 -0.080760 0.020508 0.997223 -0.071598
-0.364406 -0.271121 -0.354402 -0.772847 -0.186238 0.606649
-0.378060 0.410139 0.374092 0.486379 -0.083488 0.869750
-0.405060 -0.048348 -0.216395 -0.825551 -0.236872 -0.512208
-0.167961 0.296363 -0.076984 0.294634 0.954617 -0.043548
0.500710 -0.321004 -0.201981 -0.488781 -0.444522 0.750662
-0.344281 0.463709 0.581180 0.550285 0.129661 0.824848
-0.363555 -0.009313 -0.305324 -0.386043 0.475469 -0.790506
0.407315 0.143179 -0.210503 0.122035 0.357865 -0.925765
-0.177597 -0.329296 -0.183913 0.257787 -0.275155 -0.926194
0.301323 -0.490854 -0.302819 -0.690811 0.126141 0.711947
-0.553733 0.339336 0.069937 -0.617362 0.439433 -0.652505
-0.446388 0.359682 0.428671 0.253370 0.451160 0.855721
0.684424 0.510026 0.346282 0.227555 -0.431128 0.873125
-0.066914 -0.001849 -0.315816 0.058171 -0.082287 -0.994910
-0.434334 0.390456 0.407266 -0.082750 0.630707 0.771596
0.657622 0.541450 0.364088 -0.130681 0.114821 0.984753
-0.452319 0.200933 0.424579 0.638002 -0.352541 0.684594
0.605479 0.198778 -0.094941 0.165905 0.841385 -0.514341
-0.479206 0.071735 -0.072373 -0.880352 -0.169721 -0.442916
0.314298 -0.118123 0.097400 -0.017657 0.034297 0.999256
-0.362424 0.231188 0.307668 0.680397 -0.519070 0.517326
-0.250268 -0.280538 -0.011336 0.007362 -0.905797 0.423648
-0.240017 0.275884 0.165593 0.896915 0.188734 0.399903
-0.370723 -0.275902 -0.196079 -0.531573 -0.781304 0.327099
0.070812 0.009804 -0.303591 0.218721 0.065076 -0.973615
-0.381603 0.229279 0.354761 0.724213 -0.222128 0.652820
-0.612671 0.309387 0.255705 -0.978646 -0.115410 -0.170093
0.324799 -0.480556 -0.369728 -0.099781 0.330584 -0.938487
-0.808814 0.391930 0.294836 -0.888735 0.326417 -0.321874
-0.589442 0.184331 0.403522 -0.991410 -0.054613 -0.118841
0.298885 -0.512779 -0.301753 -0.688437 0.082660 0.720570
0.483156 -0.140426 0.043065 0.039005 -0.997119 -0.065058
-0.298503 -0.302410 -0.222717 0.051217 0.221346 -0.973850
-0.404220 -0.421362 -0.495712 -0.463878 0.447895 -0.764335
-0.470361 -0.492305 -0.507932 -0.613504 -0.044657 0.788428
-0.374235 -0.487769 -0.507119 0.982394 -0.056098 0.178198
0.073500 0.212051 -0.111475 0.185600 0.862097 -0.471530
0.304061 -0.528202 -0.342701 0.244032 -0.936936 -0.250198
0.769678 0.295420 0.079312 0.292177 -0.950030 0.109893
-0.283298 -0.231482 -0.401924 0.410386 -0.013881 -0.911806
-0.314316 0.445339 0.560396 0.603219 0.033706 0.796863
0.057769 0.008252 -0.306624 0.218721 0.065076 -0.973615
0.475164 0.211916 -0.108715 -0.066048 0.910783 -0.407568
0.604478 -0.181150 -0.029231 0.782344 0.596676 0.178650
0.506409 -0.516324 0.239402 -0.887091 0.205121 -0.413515
0.335253 -0.503124 -0.281856 -0.392730 0.138417 0.909178
-0.300029 0.413988 0.551301 0.736296 0.244466 0.630955
0.504455 -0.358323 -0.273891 0.311938 0.203286 -0.928100
0.605569 0.202689 -0.088515 0.165905 0.841385 -0.514341
0.611685 -0.236856 0.130730 -0.387262 -0.797009 -0.463470
-0.032339 0.129925 -0.241206 0.141238 0.496911 -0.856231
-0.290688 0.349872 0.244361 0.814671 0.482995 -0.320978
0.339525 0.179645 -0.167053 -0.151513 0.657146 -0.738378
-0.702178 -0.566322 -0.034355 -0.095422 0.411254 0.906512
-0.549531 -0.390364 -0.022517 -0.848553 0.506717 0.152304
-0.411036 0.410318 0.026817 -0.212234 0.668816 -0.712490
-0.685390 0.417541 0.210705 -0.144852 0.974549 -0.171089
-0.364166 0.088449 -0.254011 -0.743766 0.434673 -0.507811
0.708925 -0.194567 0.161021 0.695152 0.715915 0.065031
-0.168139 0.105221 -0.278610 0.154966 0.496083 -0.854334
0.463510 -0.371859 -0.285324 0.229747 0.348812 -0.908596
-0.527064 0.098962 0.205060 -0.948005 0.311661 -0.064455
-0.038600 -0.086477 -0.305107 -0.002251 -0.037243 -0.999304
-0.574475 0.125037 0.422881 -0.509061 -0.860225 0.029487
-0.383591 -0.141027 -0.235779 -0.764222 -0.085765 -0.639226
-0.463102 0.262818 -0.092552 -0.567689 0.397826 -0.720739
0.069705 -0.256641 0.009873 0.199889 -0.931353 0.304346
-0.353050 -0.189341 -0.317354 -0.921936 0.226718 0.314058
0.704407 0.334444 0.279773 -0.203780 -0.847342 0.490393
0.533422 -0.255173 -0.251115 0.205178 0.286473 -0.935861
-0.045499 0.226235 0.050824 0.412783 0.709402 0.571278
0.428621 0.038111 0.167451 -0.552937 0.092584 0.828063
-0.195894 -0.176385 -0.343875 0.520784 -0.844296 -0.126287
0.460891 -0.260007 -0.221743 -0.833170 -0.433218 -0.343729
-0.660241 0.354218 0.112302 0.145449 0.304668 -0.941288
-0.289064 0.439255 0.509152 0.126648 0.982407 -0.137246
-0.516995 0.168667 -0.031628 -0.961744 -0.259135 -0.088869
-0.414875 -0.192377 -0.001318 -0.910004 -0.382237 -0.160583
-0.033996 0.034632 -0.308535 -0.150713 0.288411 -0.945571
-0.436473 -0.099405 -0.050353 -0.985462 0.152029 -0.075840
-0.033528 0.110757 0.105494 0.214575 0.702415 0.678654
-0.268549 0.087754 0.181663 0.013450 0.228884 0.973361
0.033598 -0.121691 0.131050 -0.128751 -0.454456 0.881415
-0.428309 0.443942 0.108434 -0.065848 0.992503 -0.102961
0.467514 -0.143325 -0.006769 0.142486 -0.982984 -0.115932
-0.364794 0.163804 -0.192438 -0.384987 0.733966 -0.559534
-0.472263 0.442074 0.220509 -0.289359 0.956891 -0.025127
-0.440326 0.219183 -0.130661 -0.326802 0.367629 -0.870660
0.009867 -0.065266 -0.306006 -0.002251 -0.037243 -0.999304
0.093817 0.171422 0.038669 0.098841 0.786688 0.609387
0.039408 0.074749 0.123726 0.033605 0.560748 0.827304
-0.298715 -0.163965 0.143804 -0.036271 -0.446822 0.893887
0.206450 0.044347 -0.249904 0.578764 0.244525 -0.777971
0.652778 -0.357118 0.173416 -0.784166 0.096855 -0.612946
-0.052174 -0.009105 0.142017 -0.030672 0.026742 0.999172
-0.352638 -0.167800 -0.325774 -0.933504 -0.263466 0.243218
0.511636 -0.530636 0.229890 -0.098901 -0.963493 -0.248797
0.379809 0.183783 0.098729 -0.090674 0.890982 0.444892
0.347656 -0.159215 -0.078678 0.736286 -0.454782 -0.501056
0.568179 -0.065438 -0.217126 0.503300 -0.032534 -0.863499
-0.654044 -0.502115 -0.039830 -0.134183 -0.068053 0.988617
0.064053 -0.275314 -0.086145 0.155238 -0.987861 -0.005612
0.638797 0.513557 0.306337 -0.433654 0.456316 -0.776994
0.059684 -0.086942 0.147550 -0.022409 -0.352892 0.935395
0.337629 -0.516322 -0.347899 0.371108 -0.869844 -0.325039
-0.301025 -0.243046 -0.409727 0.410386 -0.013881 -0.911806
-0.471490 0.379490 0.019260 -0.295372 0.668188 -0.682847
-0.121699 -0.319575 -0.159477 0.484261 -0.873307 0.053163
0.076192 0.181163 -0.166887 0.185600 0.862097 -0.471530
0.308959 0.220568 -0.063406 -0.151203 0.977199 -0.149060
-0.450592 0.104993 0.216942 0.428948 -0.867725 0.251111
0.508108 -0.311287 -0.261878 0.174081 0.537925 -0.824823
-0.207167 -0.125373 -0.367409 0.265584 0.245097 -0.932412
0.261092 -0.242743 -0.091918 0.455362 -0.674448 0.581175
0.605459 -0.099935 -0.085161 0.625328 -0.778842 0.048691
0.040792 0.197551 0.034788 0.275541 0.523518 0.806229
-0.357321 0.026929 -0.290303 -0.315710 0.210369 -0.925242
0.603916 0.164162 0.093977 0.059437 0.563111 0.824241
0.645007 0.064497 0.137908 0.591234 0.145134 0.793334
0.694552 0.078061 0.032920 0.998874 0.008701 -0.046633
0.301365 -0.534810 -0.316523 0.297076 -0.926632 -0.230433
-0.358600 -0.058795 0.152815 -0.624246 0.188403 0.758170
0.032549 -0.030604 -0.307829 0.080032 -0.102386 -0.991520
0.291189 -0.107269 0.102387 0.292223 -0.322478 0.900341
0.619059 0.192098 -0.101488 0.165905 0.841385 -0.514341
-0.380456 0.060739 -0.250776 -0.879038 0.077350 -0.470434
0.387101 0.217541 -0.091759 0.051703 0.990863 -0.124570
-0.107786 0.121311 0.142111 0.372499 0.231060 0.898808
0.479763 -0.004496 0.184110 -0.056610 -0.069044 0.996006
0.040779 -0.201837 0.096817 -0.032188 -0.421148 0.906420
0.312525 -0.518677 -0.290525 -0.513777 0.030980 0.857364
-0.269163 -0.227954 -0.261885 -0.040006 -0.877773 -0.477403
-0.345588 -0.330743 -0.362972 0.202045 -0.603470 0.771363
-0.262932 -0.237211 0.102791 0.068687 -0.458493 0.886040
-0.291980 0.005597 -0.331351 -0.131768 0.496726 -0.857846
-0.319365 0.054462 0.180307 -0.374772 0.266889 0.887872
-0.476274 -0.029777 -0.058294 -0.349187 -0.831013 0.432996
-0.220776 0.003497 -0.335113 0.151592 0.360768 -0.920253
0.341382 -0.108849 -0.217526 -0.042128 -0.548526 -0.835071
0.068252 0.169455 -0.191516 -0.014340 0.933475 -0.358355
0.151558 0.157333 -0.195667 0.172389 0.703262 -0.689714
0.329151 0.213389 -0.129875 -0.164676 0.972236 -0.166250
-0.800359 0.393803 0.284778 -0.455360 0.852674 -0.256112
-0.506496 -0.448987 -0.038483 0.577399 -0.815136 -0.046521
-0.420985 0.077299 0.186904 -0.474360 -0.541593 0.694017
-0.518077 0.159692 -0.007680 -0.957520 -0.208910 -0.198776
0.694102 0.019012 0.096873 0.846546 0.390448 0.361815
-0.480943 0.378431 0.408840 -0.695222 0.477534 0.537241
0.064195 -0.257107 0.012065 0.199889 -0.931353 0.304346
0.033791 0.208659 0.023631 0.296746 0.866899 0.400535
-0.305449 -0.204849 -0.278077 -0.714327 -0.692287 0.102353
0.583146 0.149991 -0.158773 0.389293 0.586922 -0.709911
-0.124662 -0.165903 0.087227 0.022446 -0.432044 0.901573
-0.401660 0.126721 0.237730 0.444602 -0.540041 0.714622
-0.471683 -0.096576 -0.114596 -0.641703 -0.073977 0.763377
-0.351228 -0.392403 -0.444541 0.868603 -0.297321 -0.396395
0.410009 -0.142683 0.033805 0.039005 -0.997119 -0.065058
0.506962 0.056436 0.164543 -0.112718 0.209882 0.971208
-0.657360 0.409136 0.191235 0.034467 0.733219 -0.679119
0.070209 0.210026 -0.006307 0.296746 0.866899 0.400535
0.631823 0.034509 0.153776 0.625243 0.201770 0.753897
-0.494774 -0.536111 -0.596939 -0.466349 0.686300 -0.558132
0.101403 -0.077578 0.155260 -0.186685 -0.275653 0.942955
-0.730446 0.382176 0.262162 0.284504 0.483725 0.827688
-0.490708 0.049781 0.118380 0.110093 -0.817655 0.565084
-0.081371 -0.299558 -0.127547 0.274833 -0.922050 0.272564
-0.527328 0.106336 0.260766 -0.937433 0.345577 -0.042373
0.009382 -0.206935 -0.243208 0.034750 -0.748084 -0.662694
0.611494 0.510487 0.354297 -0.275106 -0.404175 0.872330
0.407326 -0.397619 -0.297791 -0.209697 0.831789 -0.513959
-0.548278 0.360452 0.078996 -0.617362 0.439433 -0.652505
0.428202 0.054535 0.162420 -0.533880 0.260148 0.804546
-0.209132 -0.190856 -0.330919 0.813581 -0.552382 0.181552
0.493655 -0.316855 -0.206869 -0.785776 -0.045381 0.616844
-0.200614 0.140304 0.166323 0.269901 -0.031216 0.962382
-0.420532 -0.429289 -0.460074 -0.409953 -0.372555 0.832551
-0.371118 0.425668 0.367708 -0.106288 0.490105 0.865159
-0.500063 0.012126 0.047809 -0.177522 -0.978448 0.105478
-0.523489 0.444790 0.329733 -0.275151 0.698532 0.660564
0.362182 -0.517115 -0.296187 0.345128 -0.929722 -0.128464
0.143889 0.099086 0.104001 0.097353 0.562109 0.821313
-0.198293 -0.187668 -0.300801 0.405574 -0.824314 -0.394988
-0.320329 0.268275 -0.140557 0.001983 0.841451 -0.540330
-0.557632 -0.403800 -0.022948 -0.848553 0.506717 0.152304
0.626870 0.265418 -0.019758 0.007296 0.490401 -0.871466
0.535377 -0.024945 0.183322 0.229990 0.073103 0.970444
-0.243943 0.064362 -0.310533 -0.239614 0.492292 -0.836800
-0.578956 0.191305 0.273052 -0.818151 -0.527560 -0.228711
0.637476 0.500296 0.299371 -0.398374 0.430171 -0.810093
-0.135361 0.107667 0.153658 0.300593 0.143387 0.942912
0.530781 -0.275441 -0.188503 0.267796 0.031569 0.962958
0.617389 -0.088057 -0.074578 0.745368 -0.605890 0.278070
-0.319537 0.447516 0.564256 0.603219 0.033706 0.796863
0.024940 0.119256 0.094146 0.033605 0.560748 0.827304
-0.351636 -0.276493 -0.422694 -0.021803 0.393648 -0.919002
-0.240714 0.056613 -0.315632 -0.227842 0.464004 -0.856030
0.414674 -0.138052 0.125029 -0.351531 -0.634572 0.688291
0.234131 -0.123574 0.111689 0.240892 -0.401718 0.883512
-0.344702 0.452292 0.551131 0.126648 0.982407 -0.137246
-0.244561 -0.337795 -0.217665 0.192340 -0.464527 -0.864419
0.629068 0.208897 0.037592 0.472588 -0.133891 0.871053
-0.346229 0.459005 0.557131 -0.317161 0.578674 -0.751362
0.537348 -0.226637 -0.237379 0.655238 0.083823 -0.750758
-0.472685 -0.538023 -0.592023 0.199598 -0.831976 -0.517664
-0.571324 0.323171 0.094985 -0.987290 0.076774 -0.139153
-0.417111 -0.216663 0.018375 -0.917298 -0.124572 -0.378214
0.562905 -0.197703 -0.073611 -0.617693 0.134477 -0.774837
-0.377552 0.350359 0.362079 0.697100 0.295940 0.653047
0.756506 0.337598 0.082514 0.134969 0.980846 -0.140441
0.247938 0.176811 0.041949 -0.209688 0.812891 0.543359
0.356671 0.150043 -0.211175 -0.032194 0.460213 -0.887225
-0.677618 0.380708 0.258100 0.065236 -0.312011 0.947836
0.343002 0.061018 -0.227200 -0.199741 0.194287 -0.960394
0.202606 -0.068423 -0.256479 0.316150 -0.103426 -0.943055
0.540365 -0.090428 0.188009 -0.193831 0.135980 0.971565
-0.195417 0.069251 -0.304444 0.154966 0.496083 -0.854334
-0.663167 0.349248 0.164958 0.031890 -0.998854 0.035690
0.381530 -0.143799 0.027571 0.036964 -0.993667 0.106107
-0.358019 0.074725 -0.270413 -0.548635 0.408100 -0.729695
-0.218759 -0.090941 0.163164 -0.030487 -0.345371 0.937971
0.196251 0.207241 -0.099486 -0.072532 0.922426 -0.379302
-0.014225 0.098451 0.112908 0.082152 0.541971 0.836372
0.036734 0.016845 0.149650 -0.261499 0.170741 0.949982
-0.280793 0.249413 -0.169227 0.019281 0.665198 -0.746418
-0.005283 -0.005011 -0.309352 0.238809 0.043352 -0.970098
-0.402226 -0.407575 -0.488843 -0.463878 0.447895 -0.764335
-0.375266 -0.493672 -0.507919 0.925809 -0.213132 0.312174
0.607030 -0.230691 0.124018 -0.387262 -0.797009 -0.463470
-0.701133 -0.549014 -0.038142 -0.428600 -0.007715 0.903462
-0.226560 0.025233 -0.327544 0.151592 0.360768 -0.920253
-0.467187 -0.501638 -0.505990 -0.613504 -0.044657 0.788428
0.322302 -0.190176 -0.082137 0.606569 -0.575318 -0.548711
-0.267792 -0.207174 0.123184 -0.170566 -0.617414 0.767924
0.205599 -0.257625 -0.129423 -0.197088 0.032582 -0.979844
-0.112340 0.018768 -0.305665 -0.058454 0.252308 -0.965880
0.573216 -0.037619 -0.212059 0.457150 0.124575 -0.880622
0.567806 0.094904 0.158340 -0.099967 0.385884 0.917115
-0.468239 0.130577 0.396247 0.444111 -0.892427 -0.079620
0.640136 -0.017689 0.157789 0.360946 0.044109 0.931543
-0.395577 -0.511405 -0.558123 0.762350 0.043987 -0.645669
-0.138109 0.098236 0.155968 0.300593 0.143387 0.942912
0.380370 0.080299 0.146453 -0.091545 0.038287 0.995065
-0.229488 -0.157432 -0.377416 0.402203 0.035455 -0.914864
-0.344006 -0.261970 -0.338479 -0.416454 -0.467233 0.779910
-0.353069 0.188044 0.263299 0.546230 -0.195511 0.814499
-0.350628 -0.358082 -0.378946 0.397890 -0.324944 0.857960
-0.321709 -0.283072 -0.335977 -0.431786 -0.221149 0.874445
0.339994 0.218208 -0.110360 -0.151203 0.977199 -0.149060
-0.088204 0.217959 0.086134 0.467273 0.621861 0.628447
-0.538296 0.186058 0.181881 -0.836542 -0.513546 -0.190966
0.661305 0.298617 0.018131 -0.634560 0.755706 -0.161994
0.323174 0.215713 -0.109654 -0.151203 0.977199 -0.149060
0.318333 -0.527470 -0.328984 0.244755 -0.952629 -0.180534
0.605636 -0.051025 -0.195276 0.809546 -0.089679 -0.580167
0.364769 -0.502321 -0.355779 0.336867 -0.895859 -0.289754
-0.288824 0.057365 -0.302118 -0.131895 0.484462 -0.864812
-0.095985 0.229837 -0.151600 0.218374 0.696540 -0.683480
-0.518443 0.038081 0.064794 -0.882581 0.373097 -0.286093
-0.520671 0.426393 0.180798 -0.289359 0.956891 -0.025127
0.300071 -0.197309 -0.044494 0.409573 -0.869217 0.276970
-0.251556 -0.050703 -0.353743 0.104512 0.014511 -0.994418
0.694864 0.065331 0.037221 0.998874 0.008701 -0.046633
-0.270255 -0.162888 -0.388444 -0.040577 0.404633 -0.913578
0.433971 0.222094 -0.079294 -0.066048 0.910783 -0.407568
0.447708 -0.437937 -0.280040 0.682467 -0.676919 0.275717
