ply
format ascii 1.0
element vertex 839
property float x
property float y
property float z
property float nx
property float ny
property float nz
end_header
-0.288640 0.388239 0.137833 0.761706 0.633666 0.135171
-0.320673 0.348201 0.315114 0.248282 -0.940440 0.232225
0.680921 -0.335987 0.208502 -0.021769 0.117838 0.992794
-0.429431 0.060538 -0.159630 -0.990732 0.015100 -0.134987
-0.392043 -0.164994 -0.218774 -0.848754 -0.383134 -0.364451
0.628928 -0.081976 -0.099298 0.625328 -0.778842 0.048691
-0.416091 -0.223195 0.018054 -0.917298 -0.124572 -0.378214
-0.262596 0.359914 0.285067 0.495796 0.453529 -0.740606
0.285476 -0.526846 -0.349787 -0.161047 -0.892215 -0.421919
-0.081532 0.086354 0.134188 0.716618 -0.194206 0.669882
0.004006 0.182529 -0.179849 0.041780 0.852823 -0.520525
0.181963 0.195724 -0.127639 -0.014340 0.933475 -0.358355
-0.347481 0.437818 0.330451 0.417180 0.908306 -0.030675
-0.384023 -0.433271 -0.460340 0.491258 -0.559622 0.667449
-0.309043 0.391748 0.055464 0.459414 0.783784 -0.417877
-0.277887 -0.293787 0.069881 0.391467 -0.740213 0.546661
-0.236692 0.327349 -0.040402 0.354263 0.931513 -0.082346
-0.407418 -0.346760 -0.398089 -0.747996 -0.120441 0.652683
-0.611825 -0.529651 -0.035995 -0.134183 -0.068053 0.988617
-0.254506 0.095769 -0.287388 -0.023218 0.652553 -0.757387
-0.237320 0.045306 -0.321448 0.151592 0.360768 -0.920253
-0.768131 0.360877 0.290514 0.313713 -0.906749 0.281761
0.790762 0.316173 0.073802 0.884601 -0.138222 -0.445394
-0.771322 0.394245 0.339875 0.931608 -0.334861 0.141333
-0.351238 -0.180892 0.130546 0.070208 -0.543722 0.836324
0.026284 -0.066635 0.154411 -0.022409 -0.352892 0.935395
-0.289729 0.339812 0.232240 0.825926 -0.102038 0.554468
0.550572 -0.484407 0.204471 -0.350138 0.034313 -0.936069
-0.636685 0.339048 0.183842 -0.380970 -0.923700 -0.040508
-0.368822 -0.115554 -0.273905 -0.858846 -0.378243 -0.345420
0.308501 -0.096177 0.101994 0.198664 -0.315123 0.928025
-0.423984 -0.245921 0.049108 -0.641934 0.726911 0.243968
0.357723 0.078541 -0.226717 -0.199741 0.194287 -0.960394
0.020674 0.062119 0.133047 0.033605 0.560748 0.827304
-0.362884 -0.263047 -0.026800 -0.595410 -0.634824 -0.492428
-0.414875 -0.525783 -0.495944 0.500623 0.052229 0.864089
-0.387741 -0.245628 -0.057303 -0.895806 -0.389467 0.214120
0.280702 -0.206989 -0.046231 0.409573 -0.869217 0.276970
0.047535 0.201110 -0.141698 0.185600 0.862097 -0.471530
0.604953 -0.246523 0.150917 -0.426815 -0.698785 -0.574046
-0.556353 0.365741 0.092221 -0.650772 0.706486 -0.278162
0.503927 -0.332054 -0.269311 0.322879 0.162979 -0.932302
0.579397 -0.509149 0.203382 0.375034 -0.871004 -0.317336
-0.600855 0.433037 0.216502 -0.064753 0.759704 -0.647037
-0.435613 -0.449337 -0.477020 -0.496056 -0.369998 0.785513
-0.102190 0.111654 0.142275 0.372499 0.231060 0.898808
0.300468 -0.192042 -0.027602 0.302834 -0.921156 0.244466
-0.796950 0.395598 0.284694 -0.455360 0.852674 -0.256112
-0.037853 0.166263 -0.209349 0.039020 0.848664 -0.527491
0.648385 0.189451 0.006850 0.999473 0.005958 0.031899
-0.555884 0.217987 0.470695 -0.506341 0.316753 0.802051
0.466772 -0.079065 0.176687 -0.537191 -0.215254 0.815531
-0.466111 0.066208 0.151630 -0.135396 -0.753229 0.643672
-0.511733 0.130254 0.095406 -0.869066 -0.475227 0.137416
-0.572729 0.295189 0.113748 -0.939354 -0.326199 -0.105870
-0.401829 -0.227473 0.087772 -0.873998 -0.025323 0.485270
-0.186381 0.143184 -0.251930 0.039640 0.490054 -0.870791
0.061745 -0.030165 -0.305538 0.073565 -0.092521 -0.992989
-0.222109 0.325620 0.306294 0.390074 -0.767729 -0.508365
-0.277742 -0.113967 -0.369602 -0.082061 0.383507 -0.919885
0.521810 -0.544867 0.288088 0.359282 -0.932781 -0.028908
-0.578177 0.416763 0.327943 -0.331279 0.629911 0.702472
0.404069 -0.029183 -0.259881 -0.365955 -0.024709 -0.930305
-0.495176 -0.531249 -0.525903 -0.806531 0.078239 0.585991
0.179487 0.153029 0.055580 -0.170624 0.823232 0.541458
-0.469500 0.300520 0.433459 0.168886 -0.454937 0.874362
0.740507 0.310531 0.020964 0.599527 0.214936 -0.770954
-0.368828 0.025144 -0.285587 -0.579611 0.321224 -0.748910
0.499554 0.227139 -0.066105 -0.026719 0.944198 -0.328293
-0.677608 -0.510938 -0.044151 -0.457808 0.605768 0.650736
-0.513588 0.135852 0.185223 -0.948005 0.311661 -0.064455
0.350359 0.072305 0.138184 -0.356178 -0.072538 0.931598
-0.152086 0.215310 -0.184331 0.218374 0.696540 -0.683480
0.599322 0.437988 0.294365 -0.317933 0.327877 -0.889615
-0.254538 0.382479 0.470578 -0.322649 -0.927060 0.190936
-0.586460 0.193189 0.374576 -0.991410 -0.054613 -0.118841
-0.545557 0.223164 0.086956 -0.939884 -0.331021 -0.083919
0.306613 0.170805 -0.166648 -0.209358 0.670152 -0.712085
0.646060 -0.012013 -0.158679 0.747211 -0.200320 -0.633678
-0.318259 -0.298194 -0.184755 -0.290272 -0.862728 0.414057
0.007165 0.041761 0.139593 -0.028760 0.182862 0.982718
0.648847 -0.201434 0.101425 0.792138 -0.348962 -0.500742
-0.452253 -0.357703 0.036216 -0.418355 -0.109459 0.901664
0.351108 -0.167083 -0.011277 0.360441 -0.891289 0.275112
0.679257 0.034132 -0.022282 0.935778 -0.026087 -0.351624
0.646532 -0.116749 0.168430 0.587072 0.202799 0.783721
-0.411386 0.329773 -0.055260 -0.383898 0.614471 -0.689237
-0.702492 0.413918 0.209944 -0.170301 0.785670 -0.594744
-0.064416 0.002010 -0.315990 0.058171 -0.082287 -0.994910
-0.230926 -0.336726 -0.215206 0.192340 -0.464527 -0.864419
0.180015 -0.211256 0.054492 0.317066 -0.888215 0.332481
0.554546 0.218292 0.052443 -0.203845 0.707685 0.676483
-0.233115 0.326265 -0.037282 0.354263 0.931513 -0.082346
-0.380653 -0.450432 -0.510075 0.863322 0.486555 -0.133936
0.402146 0.234833 -0.037110 -0.025627 0.999113 -0.033407
-0.468267 -0.140405 -0.143411 -0.885932 -0.344117 -0.310979
-0.253235 0.384903 0.491169 0.011308 -0.942387 0.334333
-0.201523 -0.199588 0.115583 0.286453 -0.556693 0.779768
-0.443428 -0.303387 -0.008052 -0.244185 0.563362 -0.789301
0.630731 -0.053025 0.166303 0.496524 -0.010807 0.867955
-0.311848 -0.209227 -0.287296 -0.470241 -0.582771 0.662760
-0.525399 0.431707 0.201547 -0.039311 0.962032 -0.270090
-0.673095 0.373745 0.131139 -0.150228 0.719126 -0.678446
-0.499848 0.338121 0.425215 -0.220255 0.493803 0.841217
-0.344521 -0.288836 -0.216655 -0.328206 -0.353921 -0.875797
0.668485 0.484050 0.301464 0.197138 0.265069 -0.943862
-0.187404 -0.222865 0.088819 0.598896 -0.711547 0.367458
0.335430 -0.121793 -0.183348 -0.189645 -0.981298 -0.033013
-0.380893 -0.337726 0.059070 -0.057922 -0.467062 0.882326
-0.348847 0.430849 0.369184 -0.315713 0.692322 0.648858
-0.005314 0.020641 -0.308553 -0.087015 -0.052990 -0.994797
-0.398168 -0.391764 -0.477246 0.445508 0.486204 -0.751750
0.188447 -0.119227 0.125168 0.169976 -0.375429 0.911132
0.228175 0.146051 -0.188020 0.172389 0.703262 -0.689714
0.349995 -0.131735 -0.151028 0.142280 -0.862279 -0.486037
-0.012864 0.230377 0.007659 0.226323 0.906086 0.357471
-0.196560 0.077488 -0.299869 0.154966 0.496083 -0.854334
-0.010722 -0.255345 0.032958 -0.000517 -0.888940 0.458023
-0.433238 -0.074212 -0.161817 -0.877241 0.009378 -0.479959
0.065183 -0.049926 -0.303442 0.073565 -0.092521 -0.992989
0.436591 -0.004383 -0.258353 0.085314 0.011177 -0.996291
-0.408396 0.302712 0.409367 0.944780 -0.291689 0.149363
-0.566836 0.304113 0.067289 -0.969473 -0.043818 -0.241252
0.182268 -0.201714 0.074568 0.285532 -0.734648 0.615438
-0.492239 0.313359 -0.022879 -0.439307 0.576495 -0.688958
-0.244959 -0.278431 0.015692 0.685772 0.043417 -0.726520
0.648397 -0.062239 -0.013978 0.678926 -0.343122 -0.649097
-0.221913 0.324892 0.319430 -0.368206 -0.567048 0.736805
0.646625 -0.067730 -0.128615 0.755691 -0.645752 -0.109247
0.049196 -0.035994 0.158396 -0.092293 0.123331 0.988064
-0.587946 0.199848 0.383696 -0.982462 -0.105111 -0.154011
-0.136025 0.283625 0.047642 0.431626 0.827724 0.358569
0.176304 0.140108 0.074221 -0.170624 0.823232 0.541458
-0.447562 0.229635 -0.120618 -0.144242 0.598171 -0.788281
-0.399958 -0.365458 0.041365 -0.037889 -0.691953 0.720947
-0.418539 -0.090416 0.076968 -0.841789 -0.040010 0.538322
-0.502303 0.103703 0.435764 0.466428 -0.879039 0.098668
0.541664 0.182141 -0.143032 0.152525 0.834433 -0.529582
-0.305739 0.401487 0.164272 0.684544 0.710042 0.165048
0.327120 -0.527007 -0.318795 0.345128 -0.929722 -0.128464
0.418136 -0.420115 -0.318604 0.093219 0.583804 -0.806525
-0.471637 -0.522563 -0.504395 -0.680633 0.432218 0.591545
-0.348775 0.004693 -0.304117 -0.386043 0.475469 -0.790506
-0.519144 0.157428 0.017503 -0.976450 -0.208177 -0.056629
0.296995 -0.184176 0.004504 0.364092 -0.887040 0.283897
-0.468229 -0.060577 -0.081759 -0.457010 -0.775292 0.435963
-0.016695 0.162053 -0.214558 0.039020 0.848664 -0.527491
-0.458699 0.293998 0.428016 0.056975 -0.312490 0.948211
0.712943 -0.359412 0.188817 0.731695 -0.676378 0.084473
-0.461570 0.451870 0.348262 -0.164036 0.648145 0.743640
-0.561189 0.185588 0.222720 -0.832243 -0.500674 -0.238111
0.505034 -0.389708 -0.260684 0.256176 -0.878122 0.404074
-0.243668 0.382875 0.467258 0.261788 -0.956936 0.125460
-0.754193 0.403316 0.258448 -0.150245 0.975446 0.161031
-0.537093 0.448570 0.232510 0.080568 0.846933 -0.525560
-0.352325 -0.282584 -0.425191 -0.493398 0.329202 -0.805099
-0.432925 -0.493371 -0.487484 -0.139653 -0.410938 0.900903
-0.201404 -0.182116 -0.334295 0.745542 -0.666002 0.024688
-0.488109 0.437297 0.122847 -0.300081 0.910245 -0.285315
-0.262140 -0.231638 -0.307925 0.364713 -0.699848 0.614164
0.229870 -0.252066 -0.082984 0.164265 -0.639821 0.750763
-0.285435 0.276129 -0.128615 -0.008913 0.839246 -0.543679
0.699902 0.325870 0.240952 -0.170480 -0.955694 -0.239970
-0.449993 0.390624 0.020857 -0.295372 0.668188 -0.682847
0.003802 0.189022 -0.169228 0.041780 0.852823 -0.520525
-0.570565 0.195214 0.473494 -0.369714 0.431092 0.823086
0.667136 0.459528 0.294295 0.197138 0.265069 -0.943862
0.497159 0.202164 -0.123881 0.039667 0.756318 -0.653000
0.486654 -0.135387 -0.053966 0.120277 -0.987905 -0.097862
0.592006 -0.198237 0.201822 -0.160650 -0.344312 0.925009
0.034972 0.206882 -0.135670 -0.006884 0.980081 -0.198478
0.497948 -0.177832 0.151068 -0.694688 -0.412834 0.589047
0.117946 -0.069530 -0.285804 0.330635 -0.067441 -0.941346
0.670740 0.127867 -0.009986 0.870693 0.183212 0.456429
0.339794 0.198269 -0.150532 -0.151513 0.657146 -0.738378
-0.397400 -0.491822 -0.477201 -0.018040 0.155466 0.987677
0.521327 0.179523 -0.148636 0.039667 0.756318 -0.653000
-0.568980 0.290405 0.093582 -0.955830 -0.290918 -0.041907
-0.505249 0.115860 0.451170 0.185371 0.199815 0.962139
0.126589 -0.239111 -0.164598 0.159834 -0.846284 -0.508190
0.639914 -0.203355 0.191922 0.515439 0.167952 0.840307
0.571625 -0.152330 0.195768 0.245812 -0.097931 0.964358
0.560686 -0.220622 0.175268 -0.868127 -0.135240 0.477561
0.641949 -0.286522 0.168661 -0.789138 -0.575904 -0.213531
-0.442298 -0.447171 -0.511847 -0.397707 0.811882 -0.427408
-0.440072 -0.528934 -0.594057 0.199598 -0.831976 -0.517664
-0.104723 0.243475 -0.138937 0.170010 0.782485 -0.599011
-0.610785 0.426896 0.286914 -0.676747 0.499180 0.541140
-0.464576 0.005057 0.041964 -0.177522 -0.978448 0.105478
-0.410476 0.448862 0.141600 -0.071847 0.985482 -0.153828
0.640401 0.158400 -0.119266 0.583853 0.276394 -0.763362
0.348376 -0.164314 0.001275 0.360441 -0.891289 0.275112
-0.223296 0.286856 -0.116635 0.173347 0.776975 -0.605194
-0.113672 0.270529 0.027574 0.346727 0.872767 0.343595
0.663911 -0.100389 0.030288 0.519043 -0.606894 -0.601892
-0.517125 -0.360682 -0.030082 -0.558669 0.828932 -0.027566
-0.105106 0.080517 -0.281883 0.141238 0.496911 -0.856231
-0.457703 0.133830 0.356205 0.511455 -0.852772 0.105801
0.434803 -0.140798 -0.068398 0.142486 -0.982984 -0.115932
0.247392 -0.125587 -0.218642 0.444410 -0.696193 -0.563751
-0.461833 0.397344 0.034527 -0.427498 0.712354 -0.556594
-0.372736 -0.363636 -0.464172 0.375022 0.249539 -0.892798
-0.588631 0.154875 0.421367 -0.940064 -0.179119 -0.290166
0.581892 -0.163127 0.058284 -0.100933 -0.792647 -0.601268
0.584542 -0.129270 -0.002327 0.455064 -0.855596 -0.246722
-0.228603 0.251024 0.159436 0.872742 0.020855 0.487736
0.336483 0.084358 -0.221735 -0.162083 0.117439 -0.979764
-0.811006 0.399637 0.328662 -0.985065 0.171615 -0.013945
0.648590 -0.154910 0.087143 0.218711 -0.281595 -0.934275
-0.552690 0.110539 0.447376 -0.191563 -0.525818 0.828745
0.043789 -0.005083 -0.309557 0.080032 -0.102386 -0.991520
-0.393855 -0.349918 0.051765 -0.057922 -0.467062 0.882326
0.505933 -0.150236 -0.118842 0.014627 -0.869079 0.494457
-0.655165 0.394731 0.170420 0.013731 0.962606 -0.270556
0.419413 0.066627 0.152677 -0.533880 0.260148 0.804546
-0.041345 -0.106730 0.127974 -0.107562 -0.464642 0.878942
0.375182 -0.500069 -0.282764 0.142009 -0.123361 0.982148
-0.331047 -0.272117 -0.421151 0.035191 0.334634 -0.941691
-0.681221 0.373634 0.132822 -0.150228 0.719126 -0.678446
-0.447820 0.390210 0.406021 -0.082750 0.630707 0.771596
0.656903 -0.067567 -0.001185 0.652504 -0.470475 -0.594047
-0.516469 -0.441714 -0.005565 -0.123295 -0.670497 0.731596
-0.025269 -0.120861 -0.303187 0.083147 -0.104258 -0.991068
-0.247066 0.426816 0.423011 0.777279 0.626226 0.060646
0.232536 -0.210411 -0.132997 0.563104 -0.525854 -0.637489
0.522152 -0.521204 0.283746 -0.410220 0.292411 0.863838
-0.276605 0.117735 -0.269603 -0.141848 0.524713 -0.839378
-0.620950 0.325802 0.343422 -0.800583 0.290729 0.523969
-0.220952 0.173982 -0.229385 0.060531 0.605862 -0.793264
0.685176 0.105208 0.086723 0.741846 0.221901 0.632790
0.157612 -0.252425 -0.132313 0.392207 -0.705472 -0.590325
-0.382198 0.387315 -0.014653 0.096945 0.791742 -0.603114
0.091572 -0.018407 0.158262 0.053323 0.229149 0.971930
0.135394 -0.110423 0.138693 0.018600 -0.435351 0.900069
0.052616 -0.047618 -0.304588 0.073565 -0.092521 -0.992989
-0.324075 0.043661 0.181443 -0.402952 0.228496 0.886239
-0.212654 -0.341337 -0.199859 -0.011775 -0.993995 -0.108791
-0.401008 -0.217721 -0.047308 -0.839747 -0.437751 0.321246
0.296112 -0.003679 -0.228444 0.312183 0.042280 -0.949081
0.720643 0.559438 0.348000 0.580917 0.020052 0.813716
0.620187 -0.068485 0.171171 0.470221 -0.126816 0.873390
0.277359 -0.210906 -0.108745 0.564115 -0.069190 -0.822792
-0.328884 -0.261110 -0.416645 -0.021803 0.393648 -0.919002
0.518468 0.026358 -0.232190 0.469167 -0.101436 -0.877264
-0.066894 -0.291318 -0.084111 0.116964 -0.991423 0.058316
0.811054 0.311880 0.140946 0.941003 -0.318410 -0.114581
0.337384 0.155697 -0.194677 -0.653543 0.352794 -0.669641
0.562040 -0.124540 -0.069957 0.097515 -0.949660 0.297718
0.340932 0.003286 0.128398 -0.029231 -0.154212 0.987605
-0.290906 0.375022 0.044032 0.459414 0.783784 -0.417877
-0.636481 0.316682 0.141312 -0.386238 -0.621866 0.681251
-0.504336 0.435401 0.211638 -0.039311 0.962032 -0.270090
-0.302908 -0.174495 0.138370 -0.036271 -0.446822 0.893887
-0.432941 -0.127474 -0.082514 -0.986713 0.015069 -0.161774
-0.257729 0.433391 0.453314 0.324356 0.945883 0.009885
-0.318935 -0.167664 -0.387523 -0.115393 0.338183 -0.933979
-0.195346 -0.208979 0.106609 0.286453 -0.556693 0.779768
0.695771 0.068462 0.057229 0.998874 0.008701 -0.046633
-0.132245 0.092743 0.155225 0.278603 0.398269 0.873935
-0.094595 0.253734 0.050984 0.346727 0.872767 0.343595
-0.502389 0.401249 0.076740 -0.557816 0.632648 -0.537213
-0.391957 0.328827 0.400421 0.705889 0.193246 0.681452
-0.028999 0.078488 0.124249 -0.020795 0.469737 0.882561
0.344646 0.218834 -0.107308 0.098895 0.990888 -0.091437
0.668428 -0.139982 0.092642 0.899645 -0.425027 -0.099957
-0.502855 0.318017 0.434249 -0.218849 0.188859 0.957307
0.503195 -0.163936 0.102739 -0.272446 -0.891996 -0.360716
0.074698 -0.196669 0.100060 -0.014312 -0.422082 0.906445
0.133178 -0.047622 -0.282035 0.316150 -0.103426 -0.943055
0.240993 0.155935 -0.175714 0.109112 0.686686 -0.718719
-0.487688 0.437067 0.207463 -0.289359 0.956891 -0.025127
-0.424508 0.045704 -0.173380 -0.922051 0.163548 -0.350820
-0.314644 0.368989 0.362708 -0.010659 -0.922522 0.385798
-0.614093 0.289000 0.283390 -0.895822 -0.227453 -0.381796
-0.713188 0.393360 0.185417 -0.186800 0.465242 -0.865249
0.577090 -0.242366 -0.208758 0.934031 0.356748 -0.017797
0.002849 0.163544 0.068792 0.117799 0.474539 0.872317
-0.054719 -0.200740 -0.260482 0.200301 -0.785146 -0.586024
0.599188 0.491656 0.318833 -0.808001 0.365306 -0.462262
-0.417683 0.250477 -0.115598 -0.297943 0.601882 -0.740924
-0.715423 0.325765 0.106012 -0.353922 -0.096266 -0.930308
0.708739 0.550203 0.354994 0.438760 -0.244714 0.864642
0.087091 -0.002640 0.154790 0.053323 0.229149 0.971930
-0.466578 0.293435 0.429306 0.207994 -0.427535 0.879745
0.655672 -0.171250 0.175621 0.462010 0.245993 0.852077
-0.414275 0.325940 0.424358 0.705889 0.193246 0.681452
0.142532 -0.015229 0.154176 0.067231 0.226354 0.971722
0.595667 -0.101165 -0.034798 0.992576 0.118123 0.028985
-0.527238 0.397043 0.103607 -0.650772 0.706486 -0.278162
0.457447 0.168044 0.117172 0.173589 0.869314 0.462774
0.384812 -0.153790 -0.066744 0.197352 -0.960237 -0.197478
-0.219650 0.358610 0.368494 -0.627502 -0.651138 0.426920
-0.410555 -0.340587 -0.414663 -0.942975 0.331486 0.030266
0.451255 -0.198815 -0.249267 -0.235206 -0.186224 -0.953939
0.440258 -0.162025 -0.139908 -0.008641 -0.880577 0.473825
-0.433168 0.449159 0.234491 0.379737 0.890362 0.251106
-0.261384 0.323227 0.186751 0.666244 0.494164 0.558499
0.300627 -0.214897 -0.084014 0.636197 -0.697097 -0.330619
0.554923 -0.077571 0.186474 0.166526 0.271209 0.948006
-0.532097 0.097710 0.397193 0.281461 -0.889733 -0.359381
-0.499081 -0.533317 -0.561587 -0.976747 0.201971 -0.071927
0.689314 0.496267 0.341869 0.106314 0.201484 0.973705
-0.277248 0.386185 0.477716 -0.082946 -0.995344 0.049086
0.125782 -0.263381 -0.108758 0.214037 -0.975564 0.049635
0.756039 0.292412 0.082759 -0.099362 -0.949019 0.299150
0.613053 0.210343 -0.073216 0.200294 0.845494 -0.494997
-0.352446 -0.344821 -0.454639 0.287311 0.036660 -0.957136
-0.349680 -0.345222 0.002073 0.644009 -0.675477 -0.359143
-0.563581 0.383563 0.136413 -0.402148 0.823658 -0.399831
0.040029 0.106780 -0.265271 0.171932 0.520814 -0.836177
-0.489224 -0.018901 -0.070217 -0.805584 0.413222 -0.424597
-0.417735 0.458403 0.296576 0.137345 0.985042 -0.104060
-0.355082 0.035651 0.168946 -0.490744 0.235557 0.838858
0.298524 -0.040410 0.119592 -0.037757 -0.227575 0.973028
0.670012 0.281624 -0.016927 -0.180372 0.675119 -0.715318
0.444564 0.180649 0.098326 0.173589 0.869314 0.462774
0.597269 -0.150103 -0.029352 0.874884 0.187414 0.446602
-0.626311 0.433892 0.230634 -0.541567 0.833705 0.107898
-0.110698 -0.090852 -0.307771 0.089199 -0.278442 -0.956302
0.239133 0.013244 -0.242134 0.339567 0.134296 -0.930945
-0.420148 0.436930 0.084245 0.136281 0.910105 -0.391326
-0.355575 -0.189318 -0.324783 -0.921936 0.226718 0.314058
0.669318 0.492823 0.341468 0.141003 -0.368324 0.918943
-0.457935 0.075857 0.168197 0.101042 -0.923369 0.370378
-0.551319 -0.395648 -0.014897 -0.848553 0.506717 0.152304
-0.500469 -0.557115 -0.564586 0.059903 -0.884575 -0.462536
-0.712676 -0.546725 -0.043598 -0.428600 -0.007715 0.903462
-0.283406 -0.235169 -0.401916 0.410386 -0.013881 -0.911806
-0.379343 -0.301274 -0.437579 -0.222695 0.825423 -0.518733
0.020748 0.151136 -0.220139 0.141238 0.496911 -0.856231
-0.309917 0.026660 -0.309880 -0.386043 0.475469 -0.790506
-0.044563 0.170760 -0.202611 0.039020 0.848664 -0.527491
0.382990 -0.506393 -0.299852 0.496710 -0.867403 -0.029844
-0.224713 0.089234 0.171387 0.343526 -0.095284 0.934297
-0.622461 0.304225 0.323563 -0.980837 0.058420 0.185863
-0.423133 -0.011032 -0.197568 -0.894002 0.057626 -0.444342
0.572849 -0.226069 0.144778 -0.394351 -0.793743 -0.463097
-0.412324 -0.486350 -0.480900 -0.240499 -0.426820 0.871771
0.343365 -0.070676 0.107320 0.044316 -0.553821 0.831456
-0.103492 0.241299 0.074406 0.467273 0.621861 0.628447
0.528911 -0.506712 0.282072 -0.405285 0.288927 0.867332
0.084528 -0.221173 0.076276 0.163773 -0.920261 0.355385
-0.293895 0.347835 -0.031089 0.455361 0.808220 -0.373399
0.267257 -0.004127 0.129401 0.182387 -0.137567 0.973555
0.548603 0.200767 -0.110044 0.165588 0.849566 -0.500818
0.650207 0.182468 0.014356 0.930717 0.365011 -0.023078
0.455948 0.239668 -0.018216 -0.146532 0.977241 0.153388
0.634818 -0.066912 -0.073743 0.724649 -0.638635 0.258898
0.670464 -0.089377 0.027535 0.631591 -0.433151 -0.643019
-0.278337 -0.304801 -0.222200 0.051217 0.221346 -0.973850
-0.295300 0.042605 0.182474 0.084484 -0.298401 0.950694
-0.512205 0.314639 0.431661 -0.374361 0.318959 0.870700
-0.318457 0.419113 0.396816 -0.538149 0.335443 0.773223
0.150576 -0.259261 -0.054780 0.183890 -0.981248 0.057772
-0.210582 -0.291339 -0.042865 -0.124313 -0.982532 0.138481
0.519714 -0.185283 0.127694 -0.472986 -0.480135 -0.738752
-0.356007 -0.352197 0.036572 0.266432 -0.962440 -0.052183
0.599810 -0.222796 -0.038724 0.420233 -0.513723 0.747992
-0.588640 0.255099 0.220785 -0.827130 -0.469880 -0.308332
0.715870 -0.240202 0.177995 0.593196 0.630992 0.499967
0.682075 0.353872 0.299904 -0.003976 -0.663803 0.747897
0.467986 -0.226025 -0.248081 -0.235206 -0.186224 -0.953939
0.011235 0.134256 0.084811 0.164676 0.558325 0.813115
-0.549431 0.246573 0.015563 -0.928120 -0.092311 -0.360655
-0.111822 0.215214 -0.171563 0.218374 0.696540 -0.683480
0.591001 -0.517441 0.253267 0.350697 -0.934289 -0.064152
-0.293974 0.399889 0.534383 -0.010782 -0.943908 0.330032
-0.008228 0.209508 -0.146078 0.185224 0.700030 -0.689674
0.681571 0.137629 -0.052557 0.949446 0.231318 0.212237
-0.447904 -0.477256 -0.548510 -0.059040 0.728448 -0.682553
-0.364420 0.163336 0.252312 0.515885 -0.683569 0.516329
-0.807805 0.408722 0.351378 -0.724169 0.671871 -0.155466
-0.195189 -0.141449 -0.367502 0.292995 -0.088196 -0.952038
0.344189 -0.062056 -0.235676 -0.606281 -0.159352 -0.779122
0.121375 0.164648 0.042944 0.098841 0.786688 0.609387
-0.045116 0.125208 -0.246051 0.141238 0.496911 -0.856231
0.007591 0.184320 0.054320 0.267927 0.511532 0.816425
0.299858 -0.485881 -0.330407 -0.846936 0.522584 0.098003
-0.077402 0.195718 -0.180435 0.218374 0.696540 -0.683480
-0.046269 0.080653 -0.273403 0.112877 0.532124 -0.839109
-0.183079 -0.300885 -0.084453 -0.159827 -0.970957 0.178041
0.115116 -0.196623 -0.216433 0.301986 -0.810994 -0.501092
-0.202837 0.232614 -0.180972 0.170010 0.782485 -0.599011
0.733368 0.350645 0.236811 -0.422888 0.738084 -0.525736
0.721525 0.355377 0.261104 0.193707 0.979247 0.059602
-0.252805 0.131347 0.173167 -0.008731 0.161386 0.986853
0.486191 -0.115147 -0.266717 0.098542 0.037509 -0.994426
-0.383709 -0.250511 -0.086438 -0.725856 -0.640455 -0.250900
0.022110 -0.022662 0.152725 -0.261499 0.170741 0.949982
0.478746 -0.191218 -0.155841 0.420817 -0.551513 0.720241
0.039973 -0.279098 -0.086098 0.155238 -0.987861 -0.005612
-0.233173 0.162058 0.165493 0.087355 0.217607 0.972120
-0.560002 0.261696 0.088106 -0.955830 -0.290918 -0.041907
-0.227712 0.044759 -0.320079 0.151592 0.360768 -0.920253
-0.554258 0.233535 0.159773 -0.768628 -0.348606 -0.536364
0.032915 -0.223060 0.081664 -0.110899 -0.834745 0.539354
-0.460840 0.416925 0.058825 -0.427498 0.712354 -0.556594
0.163896 -0.125386 0.127210 0.169976 -0.375429 0.911132
-0.140587 -0.250349 0.034693 0.045317 -0.720827 0.691633
-0.435004 -0.087379 0.013233 -0.992361 0.067897 0.103003
-0.537053 0.115138 0.453909 -0.191563 -0.525818 0.828745
0.107595 -0.258886 -0.021882 0.199889 -0.931353 0.304346
-0.402891 0.058388 -0.219563 -0.684683 0.192954 -0.702835
0.503179 -0.083117 -0.254345 0.503300 -0.032534 -0.863499
0.118416 0.153238 -0.209587 0.111547 0.819678 -0.561859
-0.319549 0.176702 -0.206650 -0.384987 0.733966 -0.559534
-0.088337 0.214643 -0.164642 0.218374 0.696540 -0.683480
-0.428393 0.461352 0.310427 0.137345 0.985042 -0.104060
0.594607 -0.509746 0.222995 0.375034 -0.871004 -0.317336
-0.237224 0.025516 -0.329190 0.151592 0.360768 -0.920253
0.180159 0.142089 0.072425 -0.170624 0.823232 0.541458
-0.537329 0.132644 0.490449 -0.430593 -0.742688 0.512839
-0.682281 0.372642 0.132005 -0.150228 0.719126 -0.678446
0.541279 -0.003725 -0.223843 0.457150 0.124575 -0.880622
-0.166584 0.211712 -0.194053 0.231670 0.757767 -0.610014
-0.588389 0.161086 0.416750 -0.940064 -0.179119 -0.290166
-0.309011 -0.291457 -0.347469 0.543152 -0.609677 0.577303
0.666139 0.122117 0.101816 0.719954 0.423753 0.549636
-0.526410 -0.402003 -0.059455 -0.286471 0.350658 -0.891613
-0.581963 0.254192 0.408484 -0.880617 0.094859 0.464237
-0.654661 0.422961 0.222501 -0.068799 0.994316 -0.081260
-0.508526 0.131169 0.479084 0.494300 -0.487199 0.719934
-0.401533 0.366770 0.397760 0.694618 0.326575 0.640979
-0.480226 0.099328 0.265445 0.639977 -0.757866 -0.126760
-0.456723 0.316768 -0.044821 -0.325276 0.677904 -0.659273
-0.493879 -0.524552 -0.584610 -0.346771 0.644897 -0.681071
-0.530113 0.122346 0.304353 -0.759927 -0.616072 -0.207282
0.340207 0.102088 -0.220226 -0.162083 0.117439 -0.979764
-0.605082 0.284683 0.353664 -0.902781 -0.391479 0.178128
-0.619732 0.292692 0.316217 -0.941430 -0.214853 -0.259900
-0.145898 0.259455 0.088000 0.510504 0.635085 0.579701
0.684244 0.022058 -0.006393 0.921286 -0.215415 -0.323772
-0.360851 0.339581 0.347475 0.577606 -0.111825 0.808620
-0.282151 0.389850 0.497174 -0.682207 -0.714335 -0.155944
0.012637 -0.089281 0.143809 -0.081871 -0.381978 0.920538
-0.292212 0.409559 0.438477 -0.939730 0.306249 0.152048
-0.477451 0.180779 -0.110404 -0.904290 -0.109297 -0.412690
-0.393867 0.434569 0.244677 0.192165 0.913803 0.357823
-0.439350 -0.041447 0.009095 -0.745165 -0.593765 0.303599
0.050829 -0.221576 0.087643 -0.110899 -0.834745 0.539354
0.542868 -0.313543 -0.256013 0.174081 0.537925 -0.824823
-0.131065 -0.041720 0.163228 0.228610 -0.219139 0.948533
-0.704175 -0.532592 -0.043623 -0.603213 0.599082 0.526531
0.002565 0.058747 -0.297642 0.252709 0.405755 -0.878352
-0.471521 0.125140 0.352957 0.511455 -0.852772 0.105801
-0.113597 0.261222 0.059268 0.385018 0.682862 0.620855
-0.372629 -0.273309 -0.206184 -0.628717 -0.579128 -0.518966
0.633437 0.393554 0.309380 -0.144188 -0.368868 0.918230
0.636751 -0.461804 0.238294 0.931235 -0.335889 0.141348
-0.498670 0.105825 0.437497 0.466428 -0.879039 0.098668
0.657807 0.335971 0.264325 -0.130492 -0.914335 0.383357
0.104308 -0.050381 -0.291966 0.330635 -0.067441 -0.941346
0.465536 0.195368 0.064645 0.069436 0.872982 0.482784
-0.504343 0.047371 0.117548 0.110093 -0.817655 0.565084
0.604311 0.411157 0.308235 -0.310992 -0.050740 0.949057
-0.271300 0.379450 0.427543 -0.322649 -0.927060 0.190936
-0.301774 0.324004 0.250665 0.848810 -0.525959 0.053748
0.252362 -0.058811 0.124068 0.093471 -0.122672 0.988036
0.775823 0.309817 0.053583 0.662283 -0.540671 -0.518706
-0.701283 -0.558485 -0.107345 -0.216629 -0.943236 -0.251750
-0.506640 0.437255 0.344719 -0.275151 0.698532 0.660564
0.253830 0.001008 0.131356 0.093471 -0.122672 0.988036
-0.330627 0.323386 0.301463 -0.396198 -0.061374 0.916111
-0.394802 0.378888 -0.020991 -0.349579 0.594731 -0.723940
0.017384 -0.154273 -0.293881 0.071025 -0.527485 -0.846590
0.386925 -0.442654 -0.330168 0.266401 0.675488 -0.687566
0.665252 0.165935 -0.050657 0.742108 0.667640 0.059435
-0.148808 0.264930 0.084565 0.510504 0.635085 0.579701
0.395620 0.187206 -0.182510 0.187660 0.565370 -0.803206
-0.223763 0.226661 0.151816 0.872742 0.020855 0.487736
-0.504521 0.123689 0.139065 -0.984803 -0.141294 -0.100992
0.665678 -0.195100 0.113719 0.508148 0.043553 -0.860168
-0.400984 -0.341143 -0.455172 -0.312990 0.397798 -0.862435
-0.443598 0.005323 -0.134737 -0.964268 -0.034028 -0.262733
-0.280571 0.376278 0.073126 0.553853 0.818064 -0.154977
-0.119656 0.041662 0.165377 0.285677 0.077301 0.955203
-0.260670 0.356083 0.057076 0.677309 0.710868 -0.189522
-0.537545 0.127260 0.482472 -0.430593 -0.742688 0.512839
0.341934 -0.146109 -0.127887 0.142280 -0.862279 -0.486037
-0.732825 0.381050 0.184787 -0.500222 0.482658 -0.718901
0.471633 -0.229171 -0.179709 -0.244527 -0.518170 0.819577
0.145516 -0.122822 0.131696 0.169976 -0.375429 0.911132
0.655590 0.264575 0.042291 -0.043474 -0.229179 0.972413
-0.455760 -0.032348 -0.015599 -0.859808 -0.470974 0.197265
0.402289 -0.450519 -0.270451 -0.377476 0.297490 0.876933
-0.498214 0.055900 0.029838 -0.806368 0.550153 -0.217033
0.311108 0.075848 0.114779 -0.088647 0.147441 0.985090
-0.475212 -0.023774 -0.095467 -0.718263 0.349893 -0.601393
0.093455 -0.197819 -0.227550 0.301986 -0.810994 -0.501092
-0.511674 0.126677 0.083411 -0.869066 -0.475227 0.137416
-0.305517 0.401951 0.161355 0.684544 0.710042 0.165048
-0.509166 0.106808 0.391728 -0.029583 -0.993028 -0.114108
-0.561156 0.285679 0.048953 -0.968971 -0.076464 -0.235050
0.673367 -0.115568 0.057492 0.892224 -0.417405 -0.172363
-0.572719 -0.440057 -0.058265 -0.146543 0.067985 -0.986865
0.181823 -0.095639 -0.261498 0.330635 -0.067441 -0.941346
-0.152430 -0.329823 -0.162033 0.020156 -0.750251 0.660845
0.670205 0.003020 -0.073412 0.923100 0.298127 -0.242915
-0.179376 -0.006827 0.180828 0.229690 -0.092177 0.968889
-0.047407 0.155336 0.094467 0.383204 0.212922 0.898787
-0.007296 0.152117 0.076379 0.117799 0.474539 0.872317
-0.556986 0.441619 0.315648 -0.331279 0.629911 0.702472
-0.268263 -0.269088 0.081924 0.214002 -0.338967 0.916136
0.534517 -0.313227 -0.193315 0.053016 -0.493831 0.867940
-0.568634 0.177174 0.268722 -0.818151 -0.527560 -0.228711
-0.329861 -0.371802 -0.433963 0.564197 -0.564079 -0.602907
0.393996 0.227292 0.004634 -0.023014 0.924424 0.380672
-0.377256 -0.107374 0.133524 -0.896963 0.007491 0.442043
-0.141620 -0.026809 0.169217 0.228610 -0.219139 0.948533
0.283192 -0.522398 -0.346241 -0.863911 -0.483242 0.141898
-0.304692 0.383274 0.404442 -0.579643 -0.583937 0.568359
-0.019900 0.242644 -0.087735 0.371221 0.922439 -0.106305
0.394876 -0.075560 0.132465 -0.419057 -0.266871 0.867854
0.540796 -0.533115 0.294787 -0.160118 0.271879 0.948917
0.607500 -0.508322 0.237894 0.537069 -0.813968 -0.221386
-0.326585 0.428186 0.322744 0.567880 0.675571 -0.470230
-0.424398 0.072766 -0.178005 -0.936159 0.241794 -0.255228
-0.527373 0.099259 0.438501 0.260749 -0.922356 0.285076
-0.445737 -0.143959 -0.112111 -0.843352 -0.385295 0.374572
0.467396 -0.153776 0.135157 -0.527642 -0.503132 0.684436
0.405195 0.202833 0.059591 0.014247 0.895793 0.444243
-0.031027 0.243125 -0.025993 0.347677 0.933935 0.082982
0.690481 0.101235 -0.070519 0.958887 -0.253032 -0.128496
0.264216 -0.116803 -0.216228 0.444410 -0.696193 -0.563751
0.009201 -0.250104 -0.187605 0.190018 -0.875074 -0.445127
-0.238375 0.401275 0.397421 0.966955 0.100951 -0.234109
0.642713 -0.214559 0.192445 0.515439 0.167952 0.840307
-0.793433 0.443555 0.387393 0.313667 0.806162 -0.501713
-0.265450 0.341900 0.277696 0.565081 0.125181 -0.815483
0.462298 -0.140688 0.028569 0.036964 -0.993667 0.106107
-0.428861 0.355009 0.424618 0.430656 0.322171 0.843055
-0.638994 0.426601 0.253771 -0.068799 0.994316 -0.081260
-0.482066 -0.426116 0.011379 0.158807 -0.401265 0.902090
0.264898 -0.168443 0.080279 0.247709 -0.829520 0.500537
-0.463123 0.444107 0.192672 -0.289359 0.956891 -0.025127
0.610697 0.455558 0.292021 -0.753917 0.139480 -0.641993
-0.525258 0.356886 0.407526 -0.256290 0.469378 0.844985
0.102797 0.118549 0.091463 0.033605 0.560748 0.827304
-0.317849 0.162008 0.221354 0.777149 -0.344041 0.526948
-0.100086 -0.115404 -0.306923 0.029432 0.014837 -0.999457
-0.324095 -0.220555 -0.403276 -0.110248 0.235929 -0.965496
-0.421669 -0.391268 0.009427 0.509906 -0.841334 0.179313
-0.380390 0.214622 0.337521 0.911077 -0.313321 0.267896
-0.273447 0.016550 0.173105 0.024269 -0.257847 0.965881
-0.219645 0.368587 0.329842 0.666161 0.602432 -0.439665
0.557006 -0.216527 -0.194739 0.257982 0.145328 0.955157
-0.243848 -0.239690 -0.362012 0.788146 -0.517707 -0.332875
0.575100 -0.332894 -0.222931 0.721564 -0.679214 -0.134218
-0.210846 0.317204 0.062491 0.472755 0.803220 0.362409
-0.120275 -0.098239 -0.307263 0.029432 0.014837 -0.999457
0.214558 0.077676 -0.241803 0.339567 0.134296 -0.930945
-0.295835 0.414562 0.547708 0.603219 0.033706 0.796863
-0.588900 0.307719 0.186765 -0.736987 -0.666628 -0.111607
-0.589284 0.225730 0.351920 -0.984379 -0.170483 0.043964
0.434887 0.205753 0.051855 0.048074 0.885750 0.461667
0.168924 -0.236655 -0.003004 0.168386 -0.918926 0.356681
0.687707 0.513248 0.313942 0.367328 0.051906 -0.928642
0.471248 -0.141206 -0.020145 0.142486 -0.982984 -0.115932
-0.232476 0.382483 0.342910 0.741879 0.661646 0.108809
-0.394145 -0.260414 -0.009939 -0.333897 0.501717 -0.797993
-0.613827 -0.554798 -0.072835 0.803282 -0.531953 -0.267888
-0.601691 -0.540814 -0.073778 0.393625 -0.834498 -0.385582
0.765440 -0.249420 0.155687 0.780908 0.591139 -0.201835
-0.190512 -0.257996 -0.218804 0.089517 -0.802000 -0.590579
-0.538482 0.440813 0.325208 -0.392154 0.661997 0.638730
-0.194622 0.084308 -0.295557 0.154966 0.496083 -0.854334
-0.419923 -0.221950 -0.149374 -0.403928 -0.808464 0.428051
-0.519933 0.150362 0.057077 -0.976450 -0.208177 -0.056629
-0.437925 -0.518359 -0.584069 0.084990 0.675488 -0.732457
-0.279283 -0.280445 -0.010883 0.335689 -0.665212 -0.666938
-0.599080 0.354312 0.136448 0.315002 0.419752 -0.851224
0.089716 -0.055095 -0.296753 0.330635 -0.067441 -0.941346
0.018650 0.094593 -0.277257 0.171932 0.520814 -0.836177
-0.007373 -0.255885 -0.183315 0.190018 -0.875074 -0.445127
-0.001124 -0.230874 -0.219789 -0.049798 -0.901864 -0.429141
-0.501974 0.371884 0.404839 -0.220255 0.493803 0.841217
-0.588399 0.186350 0.393892 -0.991410 -0.054613 -0.118841
-0.235617 0.195535 0.166930 0.822505 -0.174750 0.541246
-0.412053 0.433999 0.080246 0.136281 0.910105 -0.391326
0.370896 0.043313 0.138793 -0.251249 -0.186302 0.949824
0.285747 0.067577 0.113873 0.323690 0.453008 0.830668
-0.386982 0.281634 0.374918 0.702112 -0.150133 0.696059
-0.395679 0.061066 -0.225854 -0.684683 0.192954 -0.702835
-0.453163 0.009031 0.069383 -0.642836 -0.690477 0.331668
0.687695 0.115200 -0.079034 0.663483 0.451631 -0.596506
-0.171071 0.245911 -0.154586 0.170010 0.782485 -0.599011
0.608821 0.380325 0.276814 -0.672189 -0.534800 -0.512007
-0.532596 0.367686 0.399286 -0.220255 0.493803 0.841217
-0.361206 -0.266350 -0.154214 -0.662557 -0.663152 0.348205
0.366705 0.162529 -0.205063 -0.032194 0.460213 -0.887225
0.393630 0.121270 -0.221927 0.137909 0.392671 -0.909280
0.261252 0.201501 0.008995 -0.147338 0.847453 0.510014
-0.478339 0.288684 0.432060 0.302019 -0.115563 0.946272
0.072730 -0.273916 -0.060919 0.080524 -0.984017 -0.158829
0.625672 0.535541 0.353734 -0.362576 0.931903 0.009785
-0.323950 -0.129981 0.154634 -0.154250 -0.303927 0.940125
-0.402771 0.119015 -0.184246 -0.730594 0.286689 -0.619711
-0.531823 0.100915 0.391971 0.259529 -0.749251 -0.609317
-0.418258 0.282926 0.412895 0.281747 -0.751111 0.597036
-0.424377 -0.037622 0.051169 -0.990297 0.136411 0.026544
-0.489503 -0.337631 -0.015503 -0.678726 0.700002 -0.222100
0.602848 0.461771 0.328781 -0.155036 -0.367651 0.916950
-0.498242 0.105009 0.428202 0.466428 -0.879039 0.098668
-0.659277 0.325186 0.136151 -0.386238 -0.621866 0.681251
0.113938 -0.202616 0.097402 0.049388 -0.389805 0.919572
-0.409817 -0.015833 0.111320 -0.839975 0.082909 0.536253
0.333776 0.033402 -0.225094 -0.433233 -0.254010 -0.864748
-0.445403 -0.149267 -0.116819 -0.843352 -0.385295 0.374572
-0.172039 0.044467 0.180817 0.285677 0.077301 0.955203
-0.334188 -0.220233 -0.402385 -0.068050 0.262166 -0.962621
0.662099 0.155228 -0.091520 0.836998 0.319459 -0.444275
-0.344818 -0.136222 -0.339599 -0.882882 0.223368 -0.413070
0.375025 -0.104306 -0.248684 -0.701300 -0.233710 -0.673468
-0.439968 0.116160 -0.144795 -0.770646 -0.180120 -0.611278
0.148015 -0.249260 -0.140960 0.159834 -0.846284 -0.508190
-0.114720 -0.295559 -0.060299 0.116964 -0.991423 0.058316
-0.284254 -0.297133 -0.158704 -0.290272 -0.862728 0.414057
0.469165 -0.242474 -0.188856 -0.244527 -0.518170 0.819577
-0.098733 -0.296105 -0.098361 0.274833 -0.922050 0.272564
0.512355 -0.190498 0.159181 -0.694688 -0.412834 0.589047
0.393985 0.153471 -0.207487 0.135718 0.615462 -0.776394
0.130421 0.206938 -0.017177 0.026838 0.944793 0.326566
-0.445854 -0.037123 0.001587 -0.745165 -0.593765 0.303599
-0.556544 0.136270 0.328997 -0.876172 -0.291254 -0.384049
-0.516605 0.147847 0.207010 -0.642266 -0.709239 -0.290643
0.481194 -0.322217 -0.223137 -0.785776 -0.045381 0.616844
-0.522798 0.218274 -0.055493 -0.878884 0.110911 -0.463964
-0.250204 -0.144385 -0.381139 -0.040577 0.404633 -0.913578
0.292373 -0.169826 0.053159 0.354494 -0.884168 0.304270
-0.160266 0.295200 -0.050411 0.294634 0.954617 -0.043548
-0.403682 0.077385 0.196183 -0.348417 -0.594467 0.724717
-0.357995 -0.244377 0.093405 -0.125834 -0.489916 0.862640
-0.204060 0.123896 -0.264701 -0.023218 0.652553 -0.757387
-0.009081 -0.181259 0.098973 -0.191038 -0.234188 0.953237
0.658034 0.174947 -0.061760 0.742108 0.667640 0.059435
-0.533518 0.256849 -0.029232 -0.857100 0.097042 -0.505927
-0.290217 0.041853 0.181786 0.084484 -0.298401 0.950694
-0.479246 0.137765 0.432488 0.597778 -0.322339 0.734002
-0.561873 0.395554 0.164220 -0.306359 0.929721 -0.204357
-0.065313 0.061898 0.136839 0.463545 0.074432 0.882941
0.626712 0.023731 -0.172125 0.616029 0.158314 -0.771651
-0.012162 -0.254674 -0.187741 0.190018 -0.875074 -0.445127
-0.453850 0.375221 0.419973 0.019766 0.720158 0.693528
0.277150 -0.073180 0.117791 0.182387 -0.137567 0.973555
-0.443942 0.316472 0.434491 0.208023 -0.281290 0.936804
0.387652 -0.142108 0.055673 -0.048275 -0.995583 0.080519
-0.314361 0.026566 0.181144 0.148344 -0.164756 0.975115
-0.459828 -0.028399 -0.023898 -0.859808 -0.470974 0.197265
0.560199 -0.158432 -0.155771 -0.112469 -0.729632 0.674527
0.358855 -0.158498 0.006386 0.360441 -0.891289 0.275112
-0.140423 0.288490 -0.063255 0.294634 0.954617 -0.043548
0.692191 0.047612 0.010446 0.914663 -0.060012 -0.399737
-0.391079 -0.062968 0.126632 -0.672859 -0.291028 0.680120
-0.706156 -0.556557 -0.110372 -0.216629 -0.943236 -0.251750
0.738048 0.328386 0.076830 -0.816221 -0.036330 0.576596
-0.399720 0.437009 0.255680 0.402693 0.904643 -0.139495
-0.287662 -0.012166 -0.342300 -0.131768 0.496726 -0.857846
0.538831 -0.252627 -0.192819 0.339863 -0.005320 0.940460
-0.220777 -0.286485 -0.208200 0.155635 -0.354851 -0.921878
-0.703195 0.402538 0.192928 -0.069503 0.874757 -0.479551
-0.073763 0.071958 -0.282615 0.112877 0.532124 -0.839109
-0.445251 0.449907 0.207741 -0.289359 0.956891 -0.025127
0.656282 -0.035081 0.152262 0.416419 0.053265 0.907611
-0.434371 -0.518787 -0.495476 -0.201849 -0.222316 0.953852
0.650244 -0.029866 -0.147300 0.772788 -0.202578 -0.601466
-0.308722 0.418285 0.330092 0.567880 0.675571 -0.470230
-0.528919 -0.441830 -0.055667 0.121608 -0.119208 -0.985394
0.080107 -0.272597 -0.092943 0.214037 -0.975564 0.049635
-0.266045 0.351095 0.026440 0.583260 0.744280 -0.325354
-0.048477 -0.081692 -0.305263 -0.002251 -0.037243 -0.999304
0.558309 -0.196666 -0.211011 0.935691 0.332500 -0.118007
0.032077 -0.280537 -0.051182 0.155238 -0.987861 -0.005612
0.656667 -0.033941 -0.056610 0.812282 -0.543697 0.211167
-0.092200 -0.069918 0.140249 0.707285 -0.498256 0.501486
-0.491094 0.005679 0.014689 0.045298 -0.974099 0.221539
0.414528 0.055892 0.152907 -0.533880 0.260148 0.804546
0.445999 0.155060 -0.197135 0.135718 0.615462 -0.776394
-0.536291 0.186922 0.170772 -0.836542 -0.513546 -0.190966
-0.487507 0.137076 0.440392 0.742929 -0.286876 0.604780
-0.290935 0.371131 0.203741 0.882954 0.372054 0.286302
0.013550 -0.003582 -0.308913 -0.087015 -0.052990 -0.994797
-0.446069 0.430165 0.068431 -0.316517 0.835346 -0.449460
-0.323151 0.346966 0.333319 0.263015 -0.962067 -0.072463
0.392306 0.210251 -0.148767 0.098895 0.990888 -0.091437
0.758392 -0.295637 0.149176 0.911432 -0.409462 -0.040399
0.351776 -0.466524 -0.364523 0.415606 0.398345 -0.817675
-0.474885 0.438468 0.112675 -0.300081 0.910245 -0.285315
0.612662 -0.040817 0.174965 0.438105 0.148379 0.886593
-0.241892 0.049414 -0.319221 -0.227842 0.464004 -0.856030
-0.583656 0.200131 0.456995 -0.864447 0.423757 0.270482
-0.421655 -0.004602 -0.199707 -0.894002 0.057626 -0.444342
0.008310 0.011222 -0.309243 -0.087015 -0.052990 -0.994797
-0.267555 0.210289 0.199787 0.837321 -0.147839 0.526343
0.578176 0.084367 -0.196161 0.588886 0.330279 -0.737651
0.186315 -0.011620 0.148436 0.403144 -0.010253 0.915079
0.365513 -0.120619 -0.230854 -0.740932 -0.598124 -0.305399
0.201079 0.122555 -0.218297 0.163495 0.689812 -0.705286
0.620365 -0.401601 0.194135 -0.655021 0.401976 -0.639815
0.288595 -0.223638 -0.086163 0.444137 -0.838894 0.314641
0.722347 0.547257 0.328551 0.124288 0.369897 -0.920722
-0.338915 0.286160 0.284099 0.934207 -0.341175 0.104193
0.206505 -0.255924 -0.078436 0.355343 -0.762737 0.540337
0.606704 0.173822 -0.126153 0.389293 0.586922 -0.709911
-0.544827 0.094017 0.412566 0.085283 -0.996336 -0.006444
0.549946 -0.224824 -0.226181 0.655238 0.083823 -0.750758
-0.583371 0.286723 0.197502 -0.859427 -0.145751 -0.490043
-0.376943 -0.107852 0.134168 -0.896963 0.007491 0.442043
-0.703271 0.381013 0.253502 0.284504 0.483725 0.827688
-0.394114 0.225038 0.367197 0.724213 -0.222128 0.652820
-0.565619 0.260318 0.158647 -0.768628 -0.348606 -0.536364
0.658369 -0.151272 0.169101 0.578366 0.219816 0.785604
0.448896 0.206780 -0.136871 0.177751 0.886000 -0.428263
-0.253548 0.384092 0.320602 0.344275 0.903678 -0.254637
-0.456126 -0.518480 -0.500031 -0.205679 -0.223756 0.952696
-0.337910 0.438336 0.577399 -0.150977 -0.690202 0.707691
-0.371235 -0.046023 0.141210 0.081050 -0.683335 0.725592
-0.045236 -0.054272 0.142067 -0.196630 -0.087876 0.976532
0.611286 0.210765 -0.073210 0.200294 0.845494 -0.494997
0.551761 0.090493 -0.211582 0.217810 0.394440 -0.892735
-0.524748 0.164836 0.074299 -0.950661 -0.298028 -0.086163
0.114139 -0.264538 -0.043478 0.199889 -0.931353 0.304346
-0.227871 0.023243 -0.328540 0.151592 0.360768 -0.920253
-0.540791 0.202063 0.163156 -0.943077 -0.287407 -0.167340
-0.396991 -0.449943 -0.464774 0.491258 -0.559622 0.667449
-0.297505 0.260608 -0.152414 0.001983 0.841451 -0.540330
0.106031 0.221679 -0.065067 -0.006884 0.980081 -0.198478
-0.354023 0.202780 0.267476 0.546230 -0.195511 0.814499
-0.647487 -0.568700 -0.077870 -0.000000 -1.000000 -0.000000
0.269944 -0.143879 0.096188 0.119549 -0.155315 0.980604
0.059210 0.226174 -0.069916 0.166878 0.970460 -0.174237
-0.315431 -0.315044 -0.426336 0.836944 0.182157 -0.516085
-0.400151 -0.495831 -0.557852 0.423801 0.712525 -0.559196
0.671277 -0.410401 0.217882 0.861319 -0.506247 -0.042933
-0.419464 -0.024032 0.083594 -0.936042 -0.216990 0.277021
0.694405 0.567351 0.341228 0.065453 0.692084 -0.718843
-0.361321 0.269768 -0.122659 -0.311445 0.591281 -0.743901
-0.217550 0.027994 -0.324978 0.151592 0.360768 -0.920253
-0.191772 0.155905 0.163150 0.087355 0.217607 0.972120
0.094156 0.220952 -0.068243 -0.006884 0.980081 -0.198478
-0.399480 0.132141 -0.186949 -0.650201 0.436406 -0.621923
-0.392160 -0.519156 -0.553197 0.842794 -0.409836 -0.348901
0.602319 -0.173128 -0.031638 0.957620 0.124417 0.259777
0.645471 -0.361137 0.182129 -0.784166 0.096855 -0.612946
0.285697 0.008500 -0.231719 0.328877 0.011610 -0.944301
-0.254616 0.416815 0.509381 0.720484 0.433175 0.541538
0.148388 -0.178768 -0.224802 0.327458 -0.773003 -0.543358
0.501411 0.189857 0.069450 0.069436 0.872982 0.482784
-0.247580 0.375748 0.307207 0.550685 0.656951 -0.514937
-0.146891 0.268567 -0.123594 0.187137 0.702143 -0.687005
0.606559 -0.227458 0.118851 -0.387262 -0.797009 -0.463470
0.235171 -0.111434 -0.236806 0.367482 -0.323165 -0.872079
-0.530236 -0.398756 0.008333 -0.389716 0.076594 0.917744
-0.294189 0.330718 0.274424 0.488729 -0.730656 -0.476745
0.283676 -0.086079 -0.233518 0.138883 0.138775 -0.980537
0.703294 0.327452 0.267227 -0.203780 -0.847342 0.490393
-0.363453 -0.353407 0.012361 0.532159 -0.831145 0.161263
-0.153159 -0.053529 -0.342204 0.592451 0.016726 -0.805433
-0.363204 -0.229065 -0.337868 -0.699012 -0.245150 0.671777
-0.340228 -0.282880 0.084816 -0.130566 -0.135919 0.982079
0.183245 0.184847 0.011298 -0.034608 0.798080 0.601557
-0.308525 0.351125 0.319028 0.233265 -0.972256 -0.017503
-0.419171 -0.130026 0.070054 -0.594612 -0.362425 0.717694
0.380176 0.002188 0.140916 -0.497203 0.105532 0.861192
-0.596245 0.321422 0.393839 -0.548272 -0.083043 0.832167
0.151534 0.075841 -0.269604 0.493447 0.341269 -0.800028
-0.129391 -0.307470 -0.105894 0.274833 -0.922050 0.272564
-0.390296 -0.482644 -0.481723 0.693451 0.033839 0.719709
-0.144144 0.049467 -0.304467 0.151592 0.360768 -0.920253
0.503002 -0.190111 -0.169165 0.420817 -0.551513 0.720241
-0.432137 0.397414 0.401814 -0.082750 0.630707 0.771596
-0.436722 0.443255 0.107190 -0.065848 0.992503 -0.102961
0.639128 0.380560 0.271783 0.143569 0.504299 -0.851511
0.422820 -0.147091 -0.029767 0.142486 -0.982984 -0.115932
0.221907 0.216233 -0.064413 0.103787 0.971929 -0.211146
-0.414131 -0.223104 -0.146088 -0.403928 -0.808464 0.428051
-0.409595 -0.009772 0.110730 -0.839975 0.082909 0.536253
-0.520333 0.077853 0.197549 -0.109427 -0.986929 0.118311
-0.271229 0.410567 0.528277 0.627395 0.037726 0.777787
-0.226137 -0.250709 -0.233656 0.079562 -0.799403 -0.595503
0.333470 -0.449240 -0.339509 -0.619912 0.771173 -0.144918
0.330791 0.202103 0.037100 -0.199661 0.941735 0.270687
-0.524708 0.176954 0.031940 -0.950661 -0.298028 -0.086163
-0.384892 -0.316320 0.067661 -0.067452 -0.356083 0.932017
-0.126822 0.223528 -0.167884 0.218374 0.696540 -0.683480
-0.371425 -0.208045 0.114588 0.070208 -0.543722 0.836324
-0.442609 0.376079 0.418762 0.019766 0.720158 0.693528
-0.497143 0.372779 0.038917 -0.617362 0.439433 -0.652505
0.129714 -0.182789 0.104959 0.049388 -0.389805 0.919572
0.744369 0.334040 0.057595 -0.175283 0.981913 -0.071574
-0.783130 0.440301 0.413387 0.589723 -0.426986 0.685500
0.438488 -0.142733 0.051642 0.039005 -0.997119 -0.065058
-0.142465 0.292021 -0.019419 0.265848 0.961784 -0.065548
-0.506246 0.276601 -0.039443 -0.577912 0.607098 -0.545390
0.806822 0.308323 0.117474 0.865532 -0.418408 -0.275298
-0.003901 -0.029119 -0.309877 0.058171 -0.082287 -0.994910
-0.316286 0.245520 0.251875 0.817395 -0.055200 0.573427
0.640999 -0.059311 -0.019486 0.440177 -0.305470 -0.844354
-0.086407 -0.000749 0.151536 0.319919 -0.143322 0.936542
-0.449185 -0.013049 0.045743 -0.794356 -0.558491 0.238928
-0.534015 -0.464250 -0.054529 0.181581 0.251165 -0.950760
-0.355993 0.362949 -0.039701 0.196548 0.813964 -0.546655
-0.345035 0.114482 -0.254016 -0.526299 0.558521 -0.641142
-0.245837 0.413836 0.487637 0.783194 0.546181 0.297141
0.260995 0.178646 0.044242 -0.209688 0.812891 0.543359
0.288725 0.117753 -0.207023 0.257144 0.409059 -0.875527
0.696739 -0.195616 0.135243 0.577356 0.382719 -0.721239
0.174267 0.104960 -0.242838 0.334843 0.721423 -0.606159
-0.258155 -0.245166 -0.244115 0.065689 -0.773354 -0.630562
0.093330 -0.250406 -0.153038 0.176052 -0.879113 -0.442907
-0.593872 0.153851 0.438979 -0.940064 -0.179119 -0.290166
-0.229060 0.073820 -0.307078 -0.023218 0.652553 -0.757387
-0.176481 0.173713 -0.226577 0.034651 0.647594 -0.761197
-0.420321 -0.176951 0.028392 -0.973167 0.134136 -0.186958
0.681719 0.061394 -0.031549 0.982293 -0.184357 0.033368
-0.728719 0.368946 0.132951 -0.117201 0.772066 -0.624643
-0.415922 0.046509 -0.210130 -0.684683 0.192954 -0.702835
-0.421367 -0.550782 -0.516111 0.366447 -0.663608 0.652182
0.466454 -0.366081 -0.240082 -0.536333 -0.104409 0.837524
0.623007 0.533316 0.343672 -0.413105 0.904892 -0.102539
-0.403803 -0.525360 -0.506182 0.667948 -0.412681 0.619305
0.543837 -0.150088 0.050899 -0.256714 -0.836648 -0.483858
-0.023440 -0.155278 0.107335 -0.139288 -0.392707 0.909054
-0.019309 -0.217295 0.083854 -0.125000 -0.678378 0.724001
0.049572 0.210428 -0.118665 -0.006884 0.980081 -0.198478
-0.025168 -0.251295 -0.199936 0.190018 -0.875074 -0.445127
-0.374068 -0.464641 -0.501070 0.981246 -0.048733 0.186496
-0.395589 0.163777 0.266713 0.043776 -0.851796 0.522042
0.622125 -0.462715 0.183573 -0.126494 -0.603257 -0.787451
-0.423006 0.042455 0.145882 -0.453565 -0.542641 0.706979
-0.343240 -0.237348 -0.221004 -0.151519 -0.085270 -0.984770
-0.213400 -0.267085 0.017366 0.138994 -0.943449 0.300973
-0.474558 0.078555 0.177509 0.029873 -0.821660 0.569195
-0.360733 -0.143241 -0.262809 -0.764222 -0.085765 -0.639226
0.141253 -0.252859 -0.028374 0.343175 -0.812876 0.470598
0.532389 0.218261 -0.086645 0.165905 0.841385 -0.514341
-0.392945 0.250227 0.374353 0.703057 -0.144374 0.696324
-0.083004 0.186131 -0.193850 0.253976 0.663344 -0.703897
-0.615225 0.348772 0.248233 -0.975045 -0.101229 -0.197586
-0.414942 -0.188316 -0.055639 -0.982873 -0.110359 0.147588
