ply
format ascii 1.0
element vertex 839
property float x
property float y
property float z
property float nx
property float ny
property float nz
end_header
0.213436 -0.174375 0.095917 0.247709 -0.829520 0.500537
0.604477 -0.460671 0.265878 0.160301 0.533470 0.830490
-0.366041 0.009093 -0.293039 -0.386043 0.475469 -0.790506
-0.254584 -0.255232 -0.347533 0.738461 -0.640584 0.210542
-0.515562 0.124257 0.476737 0.480687 -0.678436 0.555576
-0.577401 0.194741 0.260134 -0.832243 -0.500674 -0.238111
0.509529 -0.135046 -0.090358 0.030839 -0.998365 0.048136
-0.138584 -0.325117 -0.158286 0.270027 -0.931701 0.242937
-0.204998 0.361921 0.349404 0.687535 0.688635 -0.230386
-0.326974 -0.048947 0.171169 -0.248206 0.143110 0.958078
0.432726 0.191271 0.079864 0.048074 0.885750 0.461667
-0.530036 0.357132 0.405940 -0.256290 0.469378 0.844985
-0.275888 0.354912 0.182598 0.748488 0.360437 0.556643
-0.038283 -0.251036 0.041291 -0.000517 -0.888940 0.458023
0.507814 -0.499212 0.245094 -0.903649 0.251183 -0.346879
-0.651866 -0.568700 -0.056510 -0.000000 -1.000000 -0.000000
0.700938 0.027065 0.066798 0.972342 0.194934 -0.128652
-0.465495 -0.405687 0.018540 0.170780 -0.554530 0.814451
0.593867 -0.309236 -0.221525 0.732344 -0.030234 -0.680264
-0.457786 -0.047611 -0.129852 -0.665234 0.412911 -0.622068
-0.125406 -0.093360 0.146546 0.484136 -0.587946 0.648021
0.012886 0.139676 0.080795 0.033605 0.560748 0.827304
0.605698 0.037627 -0.186050 0.616029 0.158314 -0.771651
0.290170 -0.198463 -0.102109 0.468791 -0.044800 -0.882172
0.192660 -0.124059 0.122384 0.231390 -0.393960 0.889525
-0.289402 -0.294690 -0.140144 -0.156545 -0.986825 -0.040859
-0.038616 0.117599 0.101704 0.371315 0.301678 0.878132
-0.308839 0.412989 0.555288 0.188575 -0.573209 0.797415
0.356151 0.052861 -0.231585 -0.199741 0.194287 -0.960394
0.275015 0.217271 -0.038389 -0.245956 0.902358 0.353916
0.689731 0.119190 -0.073748 0.663483 0.451631 -0.596506
-0.624891 0.308118 0.302714 -0.924433 -0.222463 0.309731
-0.365867 -0.107734 -0.289814 -0.858846 -0.378243 -0.345420
0.496353 0.231323 -0.053811 -0.026719 0.944198 -0.328293
0.682278 0.122325 0.066028 0.815731 0.576738 -0.044241
-0.315905 0.394370 0.230614 0.567480 0.797570 0.204570
0.385307 0.233671 -0.008553 -0.100749 0.792930 0.600926
-0.454721 0.400600 0.033231 -0.427498 0.712354 -0.556594
-0.399312 0.147147 -0.176596 -0.650201 0.436406 -0.621923
0.250395 0.135395 -0.193910 0.109112 0.686686 -0.718719
0.281707 -0.513094 -0.320533 -0.804514 0.471452 -0.361235
0.181261 -0.236922 -0.015262 0.317066 -0.888215 0.332481
-0.548143 -0.390097 -0.034263 -0.765815 0.633518 -0.110375
-0.241587 0.416655 0.470807 0.816229 0.577193 0.024875
0.470098 -0.415197 -0.253552 0.346217 -0.884131 0.313760
-0.398234 0.265639 -0.111102 -0.297943 0.601882 -0.740924
-0.423321 0.102170 -0.160627 -0.711222 -0.213189 -0.669861
-0.534088 0.338427 0.049579 -0.633410 0.611526 -0.474160
0.407740 -0.123579 0.121436 -0.533883 -0.088128 0.840953
-0.423275 0.399859 0.020645 -0.212234 0.668816 -0.712490
-0.430951 -0.144541 0.033872 -0.879471 -0.385802 0.278724
0.176841 -0.077006 0.145356 0.155408 -0.392941 0.906337
0.189895 0.112430 -0.230793 0.163495 0.689812 -0.705286
0.648667 -0.000200 -0.159192 0.938607 0.171164 -0.299532
-0.121481 0.074812 0.159965 0.278603 0.398269 0.873935
-0.281652 -0.221359 -0.401337 0.410386 -0.013881 -0.911806
-0.039314 -0.097025 -0.304712 -0.002251 -0.037243 -0.999304
-0.306315 -0.308665 0.072032 0.479208 -0.658361 0.580448
-0.595821 0.246250 0.317953 -0.928217 0.025627 0.371157
0.494218 -0.104393 0.179820 -0.229170 0.108464 0.967324
-0.540221 0.127868 0.319523 -0.610089 -0.489025 -0.623415
-0.409788 -0.338161 -0.417332 -0.942975 0.331486 0.030266
0.277646 -0.001148 -0.234642 0.328877 0.011610 -0.944301
-0.390442 -0.387003 -0.410381 -0.360184 -0.781042 0.510139
-0.275217 0.386960 0.496864 -0.082946 -0.995344 0.049086
-0.593269 0.257730 0.371175 -0.953678 -0.291213 -0.075452
0.620121 -0.191460 0.091495 0.218711 -0.281595 -0.934275
-0.569962 0.167330 0.338127 -0.888175 -0.328803 -0.320989
-0.591138 0.419602 0.315005 -0.623138 0.428085 0.654556
-0.294035 -0.325813 -0.214162 -0.358243 -0.793249 0.492359
0.445978 -0.155614 -0.260493 -0.082443 0.236073 -0.968232
0.352557 0.219572 -0.090745 0.098895 0.990888 -0.091437
-0.478405 0.359260 0.429165 -0.695222 0.477534 0.537241
0.676542 -0.026062 0.003705 0.921286 -0.215415 -0.323772
0.649335 -0.157131 0.087987 0.218711 -0.281595 -0.934275
-0.435260 -0.351244 0.047516 -0.097114 -0.404909 0.909185
-0.652186 0.341846 0.148049 -0.318284 -0.352142 0.880166
-0.777265 0.404882 0.370517 0.577782 -0.680644 0.450435
-0.305781 -0.305733 -0.411146 0.773875 -0.177753 -0.607883
-0.604151 -0.547438 -0.061954 0.393625 -0.834498 -0.385582
0.593409 0.152296 0.102842 0.059437 0.563111 0.824241
-0.250476 0.282610 0.177661 0.557041 0.155289 0.815838
0.682499 0.107009 -0.004636 0.915373 0.203022 -0.347670
0.670826 -0.245316 0.127017 0.178828 0.085703 -0.980141
0.629012 0.475345 0.290284 -0.398374 0.430171 -0.810093
0.047260 -0.272848 -0.024982 0.199889 -0.931353 0.304346
-0.058410 0.165687 -0.211797 0.039020 0.848664 -0.527491
0.176537 0.091059 -0.254323 0.347711 0.263916 -0.899692
-0.475348 0.442870 0.128179 -0.065848 0.992503 -0.102961
-0.376652 0.164011 -0.184008 -0.384987 0.733966 -0.559534
-0.420004 -0.337862 0.055106 -0.097114 -0.404909 0.909185
0.437317 -0.456480 -0.301392 0.586192 -0.796100 -0.150349
0.452237 -0.237541 -0.201097 -0.627582 -0.726271 0.280484
-0.421893 -0.238799 -0.197386 -0.559956 -0.020958 -0.828257
-0.493893 0.170025 0.480386 0.892982 0.196502 0.404932
-0.566672 0.276326 0.118126 -0.939354 -0.326199 -0.105870
0.082088 -0.204725 -0.223225 0.301986 -0.810994 -0.501092
-0.446597 -0.286029 0.036937 -0.753555 0.652794 -0.077552
-0.240802 0.379816 0.409367 0.367734 -0.928898 0.043830
0.232943 0.001685 -0.246059 0.339567 0.134296 -0.930945
0.616166 -0.240712 0.133617 -0.387262 -0.797009 -0.463470
0.478407 -0.135019 -0.069848 0.030839 -0.998365 0.048136
0.026324 -0.116690 -0.299297 0.083147 -0.104258 -0.991068
-0.595117 0.176791 0.434814 -0.974927 -0.071154 -0.210844
-0.436267 0.461959 0.316422 -0.055226 0.996338 -0.065267
-0.222029 0.352747 0.351533 -0.360201 -0.880335 0.308651
-0.537724 -0.392746 0.003376 -0.586841 0.133363 0.798644
0.476138 -0.114698 0.170622 -0.527642 -0.503132 0.684436
-0.427806 0.170161 0.371955 0.672109 -0.579324 0.461143
0.489214 -0.306602 -0.209620 -0.746767 -0.424337 0.512131
-0.587903 0.277086 0.208317 -0.859427 -0.145751 -0.490043
0.157958 0.152618 -0.198875 0.172389 0.703262 -0.689714
-0.408223 -0.205751 -0.106871 -0.911328 -0.407738 -0.056842
-0.588766 0.220794 0.402254 -0.944481 0.088818 0.316334
-0.103876 0.275266 -0.029915 0.423477 0.904431 -0.051693
0.694483 0.013570 0.092777 0.685661 -0.501586 0.527522
0.089922 -0.107464 -0.293964 0.367561 -0.046322 -0.928845
0.618790 -0.244178 0.137384 -0.387262 -0.797009 -0.463470
0.757504 0.338145 0.241739 0.630425 0.302691 0.714803
0.257034 -0.069567 -0.238934 0.269602 -0.105863 -0.957135
-0.420295 -0.399781 -0.473310 -0.463878 0.447895 -0.764335
-0.473434 0.387013 0.408287 0.019766 0.720158 0.693528
0.722096 0.557400 0.347013 0.580917 0.020052 0.813716
-0.426252 -0.324593 0.060347 -0.097114 -0.404909 0.909185
-0.001017 0.173010 0.064165 0.117799 0.474539 0.872317
0.260900 -0.219465 -0.056101 0.409573 -0.869217 0.276970
-0.480406 0.121048 0.364019 0.520057 -0.848590 0.097136
0.007833 0.011743 -0.309229 -0.087015 -0.052990 -0.994797
0.401556 -0.467340 -0.271125 -0.480703 -0.800331 0.358321
-0.008392 0.156836 0.073959 0.117799 0.474539 0.872317
-0.513131 0.137800 -0.008494 -0.957520 -0.208910 -0.198776
0.432206 -0.140221 -0.076481 0.142486 -0.982984 -0.115932
-0.567102 0.391430 0.358477 -0.386664 0.658346 0.645810
-0.623560 0.344698 0.316207 -0.975287 -0.107065 -0.193269
-0.385984 0.451313 0.305045 0.304448 0.947453 -0.098209
0.631664 -0.081888 -0.112901 0.653734 -0.742628 0.145380
0.553776 0.029095 -0.213623 0.469167 -0.101436 -0.877264
0.426599 0.236376 -0.025279 -0.146532 0.977241 0.153388
0.209231 -0.064366 -0.254703 0.316150 -0.103426 -0.943055
-0.388004 -0.454865 -0.526840 -0.026522 0.666689 -0.744864
0.576907 -0.488056 0.282324 0.383797 -0.021275 0.923172
-0.473808 -0.540283 -0.509972 -0.207707 -0.384398 0.899498
-0.404849 -0.002032 -0.223186 -0.717492 0.005573 -0.696545
0.159518 0.204778 -0.103158 -0.014340 0.933475 -0.358355
0.670510 0.027707 -0.070637 0.948035 -0.282375 -0.146609
0.175498 -0.152220 -0.240272 0.442820 -0.681386 -0.582772
0.164261 0.205060 -0.016181 0.098841 0.786688 0.609387
-0.804116 0.402777 0.316201 -0.458023 0.820350 -0.342406
0.544294 0.151426 -0.175760 0.336833 0.631859 -0.698068
0.387383 0.117405 0.144740 -0.203662 0.091123 0.974791
-0.523562 0.075366 0.267167 0.145572 -0.989031 -0.025017
-0.655642 0.423806 0.233666 -0.068799 0.994316 -0.081260
-0.355505 -0.273744 -0.350306 -0.431786 -0.221149 0.874445
-0.522043 0.113670 0.202320 -0.948005 0.311661 -0.064455
0.260890 -0.210404 -0.027649 0.409573 -0.869217 0.276970
-0.164564 -0.031490 -0.343615 0.320417 0.028544 -0.946847
-0.480781 0.196001 0.451803 0.725568 0.049636 0.686359
-0.365407 0.453550 0.584392 -0.336602 -0.758771 0.557643
-0.342409 -0.383623 -0.434645 0.564197 -0.564079 -0.602907
-0.744855 0.402038 0.210200 -0.323703 0.832990 -0.448713
-0.378697 -0.264355 -0.390218 -0.884898 0.285411 -0.368098
-0.588043 0.199580 0.339481 -0.997251 -0.016813 0.072159
0.675145 0.080361 -0.120775 0.836998 0.319459 -0.444275
0.208565 -0.048776 0.138358 0.461506 0.048240 0.885824
0.457732 -0.242255 -0.238132 -0.414591 -0.460990 -0.784603
0.494810 0.011682 -0.243029 0.226349 0.193901 -0.954551
-0.585929 0.227373 0.421674 -0.814029 0.348273 0.464826
0.353633 0.085823 0.138755 -0.303451 0.044461 0.951809
-0.260148 0.328849 -0.058303 0.036535 0.893053 -0.448465
-0.413912 0.256209 0.391970 0.537986 -0.003404 0.842947
-0.300588 -0.019825 -0.341378 -0.333041 0.123449 -0.934796
-0.321896 0.333229 -0.064606 0.059898 0.597594 -0.799559
0.333161 -0.468524 -0.365306 -0.288200 0.567029 -0.771634
0.583486 0.061843 0.171599 0.107122 0.229614 0.967369
0.051447 0.174429 0.046126 0.267927 0.511532 0.816425
-0.346549 0.290955 -0.105334 0.001983 0.841451 -0.540330
0.104883 0.205281 -0.111500 0.185600 0.862097 -0.471530
-0.552768 0.202228 0.478887 -0.506341 0.316753 0.802051
0.783824 0.343977 0.193480 0.121035 0.985899 -0.115557
0.483147 0.220298 0.028829 -0.203845 0.707685 0.676483
-0.438627 0.184749 -0.144433 -0.520771 0.253207 -0.815282
0.480708 0.142159 -0.201222 0.122035 0.357865 -0.925765
-0.015667 -0.285810 -0.105986 0.136502 -0.988755 0.061082
-0.478987 0.152342 0.454731 0.744424 0.159215 0.648447
0.667589 0.452378 0.332702 -0.099336 -0.155831 0.982776
-0.341134 0.392941 0.384209 -0.400367 -0.336132 0.852480
-0.417181 0.455671 0.191985 0.067588 0.996768 -0.043427
0.720648 0.326203 0.218513 -0.210463 -0.959505 -0.187231
-0.460064 -0.070689 -0.138340 -0.635758 0.258118 -0.727452
-0.415516 -0.379536 -0.428133 -0.932583 -0.051171 0.357310
0.475506 0.036755 0.173804 0.038965 0.711420 0.701686
0.052924 -0.277152 -0.070495 0.155238 -0.987861 -0.005612
-0.289157 0.397363 0.464141 -0.909581 -0.397897 0.119753
0.477245 -0.314786 -0.227621 -0.785776 -0.045381 0.616844
-0.519130 0.450999 0.325259 -0.334543 0.641148 0.690660
-0.363097 -0.125821 -0.276895 -0.858846 -0.378243 -0.345420
-0.459589 0.019715 -0.088824 -0.718263 0.349893 -0.601393
-0.490531 0.082891 0.206153 0.437054 -0.881167 0.180358
0.258667 -0.253862 -0.110975 0.824115 -0.501190 -0.263898
-0.480994 0.153974 -0.095541 -0.904290 -0.109297 -0.412690
-0.006397 0.071562 0.128468 -0.020795 0.469737 0.882561
-0.431306 -0.037544 0.039903 -0.508623 -0.803070 0.310452
0.765229 0.344051 0.229679 0.739780 0.482968 0.468473
0.464815 -0.017456 0.182362 -0.056610 -0.069044 0.996006
0.677045 -0.068973 0.022399 0.760074 -0.333406 -0.557788
-0.069449 0.026271 0.144148 0.178021 -0.033472 0.983457
-0.033705 -0.067144 0.143230 -0.196630 -0.087876 0.976532
-0.344173 -0.145452 0.146314 -0.154250 -0.303927 0.940125
0.565843 0.051338 -0.209742 0.469167 -0.101436 -0.877264
-0.285239 0.424489 0.478903 -0.781905 -0.030472 -0.622653
0.214982 -0.204536 0.039098 0.317066 -0.888215 0.332481
0.207142 0.095047 0.104086 -0.005799 0.535471 0.844534
0.449251 0.115853 0.142652 -0.005257 0.191222 0.981533
0.469998 -0.407514 -0.293609 0.799731 -0.494278 -0.340764
-0.267074 -0.323557 -0.190774 -0.368558 -0.787681 0.493685
-0.793360 0.396715 0.282030 -0.455360 0.852674 -0.256112
-0.303692 0.011844 0.176624 0.236066 -0.366169 0.900107
-0.309134 -0.286197 -0.220132 0.069464 0.198742 -0.977587
-0.101982 -0.093152 -0.306649 0.029432 0.014837 -0.999457
0.203215 -0.129940 0.117033 0.231390 -0.393960 0.889525
-0.318260 0.413237 0.401490 -0.490543 0.856888 0.158466
0.714186 0.328415 0.222358 -0.500119 0.480936 -0.720126
0.582200 -0.478794 0.280337 0.383797 -0.021275 0.923172
-0.429115 0.403097 0.025424 -0.212234 0.668816 -0.712490
-0.435437 -0.040237 0.022598 -0.806045 -0.566173 0.172454
-0.762434 0.392721 0.214805 -0.509137 0.545458 -0.665774
-0.376802 -0.188539 0.122640 -0.347208 -0.199666 0.916286
0.386131 -0.497736 -0.346977 0.172835 -0.940544 -0.292413
-0.397362 0.414709 0.030300 0.132055 0.978901 -0.155928
0.480303 -0.165370 0.140038 -0.661712 -0.421495 0.620064
-0.494108 -0.434441 0.004155 -0.094243 -0.678181 0.728827
-0.281114 0.341147 0.219654 0.825926 -0.102038 0.554468
-0.374499 -0.270034 -0.404713 -0.884898 0.285411 -0.368098
-0.711595 0.374421 0.136506 -0.117201 0.772066 -0.624643
-0.419761 0.453970 0.200293 0.149612 0.948686 0.278589
-0.396055 0.166002 0.302279 0.484839 -0.873965 -0.033402
0.188815 -0.023912 -0.265993 0.315981 -0.105558 -0.942875
0.473081 -0.336634 -0.264383 -0.915301 0.366505 -0.167030
-0.584455 0.371935 0.366119 -0.587273 0.600675 0.542494
-0.293357 -0.051572 -0.351879 -0.147903 0.047125 -0.987879
0.194385 -0.020933 -0.264459 0.315981 -0.105558 -0.942875
-0.359075 -0.260674 -0.139349 -0.662557 -0.663152 0.348205
-0.031835 0.244056 -0.112221 0.213090 0.945066 -0.247876
-0.381392 0.163570 -0.181323 -0.384987 0.733966 -0.559534
0.270682 0.153729 -0.173692 -0.196355 0.697659 -0.688997
-0.139123 -0.325550 -0.159346 0.270027 -0.931701 0.242937
-0.507249 0.269189 0.448335 -0.165347 0.335646 0.927363
0.628413 -0.173658 0.088070 0.218711 -0.281595 -0.934275
-0.679746 0.359171 0.213241 -0.230659 -0.955088 0.186018
-0.389889 0.168004 0.303019 0.280180 -0.952462 -0.119648
0.557325 0.154148 -0.167857 0.236462 0.642689 -0.728722
-0.414975 -0.228112 -0.155834 -0.434601 -0.755749 0.489863
-0.465531 -0.035630 -0.046205 -0.797137 -0.427489 0.426411
-0.548400 0.093716 0.411844 0.085283 -0.996336 -0.006444
0.357457 0.212440 0.029991 -0.238647 0.862243 0.446749
-0.749855 0.363168 0.279659 0.347078 -0.793037 0.500629
0.539024 -0.361114 -0.247210 0.685045 -0.687296 -0.241530
0.087005 -0.263850 -0.023551 0.199889 -0.931353 0.304346
-0.425338 0.180546 0.376785 0.753275 -0.330700 0.568520
-0.418121 -0.500217 -0.568471 0.085589 0.464655 -0.881346
0.335286 0.006738 -0.223366 -0.481663 0.138171 -0.865396
0.292514 -0.199975 -0.041685 0.409573 -0.869217 0.276970
-0.298135 0.083709 0.179011 -0.306366 0.410146 0.859023
-0.387924 -0.108331 0.113508 -0.739334 -0.281561 0.611644
0.692263 0.260634 0.016596 0.604942 -0.769774 -0.203701
-0.526295 0.173300 0.062085 -0.950661 -0.298028 -0.086163
-0.514933 0.133964 0.088001 -0.869066 -0.475227 0.137416
0.165879 0.093584 0.105160 0.097353 0.562109 0.821313
0.646944 0.198490 -0.028453 0.859750 0.057053 -0.507518
0.205559 0.200283 -0.007898 -0.034608 0.798080 0.601557
0.289855 0.189064 0.038467 -0.464981 0.816766 0.341591
0.076297 0.037561 0.145727 -0.007537 0.396141 0.918159
-0.346644 0.454327 0.553704 -0.317161 0.578674 -0.751362
0.549617 -0.452673 0.221279 -0.726344 0.542759 -0.421706
0.379813 0.035287 -0.246531 -0.412131 0.281474 -0.866557
0.727226 -0.340957 0.166830 0.802972 -0.520796 0.289841
-0.514125 0.169234 0.493081 0.880535 -0.152597 0.448746
0.188297 -0.215603 0.034981 0.317066 -0.888215 0.332481
0.187838 0.189059 -0.145237 -0.014340 0.933475 -0.358355
-0.430168 -0.541587 -0.574004 0.115429 -0.794650 -0.595992
-0.021237 -0.225528 -0.228690 -0.049798 -0.901864 -0.429141
0.340922 -0.145565 0.068996 0.089161 -0.995369 0.035926
0.443147 -0.214318 -0.244241 -0.235206 -0.186224 -0.953939
0.346230 -0.055323 0.116989 -0.018791 -0.214446 0.976555
-0.318817 0.105825 0.190137 0.218723 -0.563661 0.796522
0.332463 0.073606 0.125109 -0.582725 0.133316 0.801660
-0.512676 0.365864 0.048956 -0.617362 0.439433 -0.652505
-0.788483 0.413929 0.337870 0.122534 0.889875 -0.439441
0.685483 -0.101507 0.086155 0.892224 -0.417405 -0.172363
-0.170880 -0.293423 -0.040651 0.066907 -0.871357 0.486067
0.393702 0.213857 0.037240 -0.023014 0.924424 0.380672
0.673789 0.135165 0.076891 0.815731 0.576738 -0.044241
-0.412948 -0.193414 -0.035819 -0.865573 -0.500780 0.001618
0.483912 0.236722 0.003666 -0.220841 0.924915 0.309453
-0.388621 -0.379207 -0.399159 -0.411402 -0.663157 0.625277
0.635382 0.008209 -0.167565 0.469167 -0.101436 -0.877264
0.284769 0.221252 -0.054995 -0.084100 0.917152 -0.389562
-0.354455 -0.351310 0.028128 0.266432 -0.962440 -0.052183
0.601257 -0.126235 0.011074 0.244285 -0.868215 -0.431889
-0.309519 0.435103 0.371752 0.069857 0.997544 -0.005137
-0.588244 0.247501 0.234121 -0.776682 -0.571637 -0.264570
0.233792 -0.066026 -0.246287 0.316150 -0.103426 -0.943055
-0.508494 0.083003 0.118290 -0.930927 0.234365 -0.280085
-0.409083 -0.097646 0.091218 -0.841789 -0.040010 0.538322
-0.143178 0.022844 0.173162 0.275822 -0.012047 0.961133
-0.346776 -0.279424 -0.097161 -0.529832 -0.811251 -0.247285
-0.344558 -0.254942 0.089306 -0.147097 -0.462534 0.874314
-0.522059 0.191761 -0.044162 -0.961744 -0.259135 -0.088869
-0.435940 0.043356 -0.142834 -0.937726 0.160760 -0.307938
-0.379071 -0.496453 -0.496593 0.961234 -0.183197 0.206077
0.600030 -0.190174 -0.079386 0.415564 0.164443 -0.894575
0.045312 0.210720 -0.117076 -0.006884 0.980081 -0.198478
0.034482 0.233093 -0.047343 0.129527 0.985469 0.109883
-0.425968 -0.544156 -0.508601 0.225823 -0.377100 0.898220
-0.201297 0.250725 -0.156876 0.170010 0.782485 -0.599011
0.071461 0.158171 -0.211499 0.039066 0.711680 -0.701416
0.261072 -0.132469 -0.199288 0.452565 -0.708400 -0.541622
0.742457 0.334587 0.069782 -0.175283 0.981913 -0.071574
0.730857 0.301831 0.064979 -0.816221 -0.036330 0.576596
0.542134 0.052738 0.169424 -0.112718 0.209882 0.971208
0.750253 0.325794 0.186751 -0.618149 0.713778 -0.329260
0.652221 0.163997 -0.103018 0.725503 0.630843 -0.275104
-0.144390 0.290262 -0.053030 0.265848 0.961784 -0.065548
-0.428943 0.455606 0.277564 0.269810 0.837883 -0.474504
0.139604 -0.262226 -0.070219 0.183890 -0.981248 0.057772
0.354137 -0.118007 -0.209660 -0.322056 -0.886462 -0.332362
0.535703 -0.142373 0.041876 -0.256714 -0.836648 -0.483858
-0.204962 0.318422 -0.001704 0.358680 0.930589 -0.073162
0.521550 -0.351710 -0.215605 0.017199 -0.513726 0.857782
-0.132333 0.120352 0.150764 0.300593 0.143387 0.942912
-0.116068 -0.126400 0.106365 -0.005882 -0.542453 0.840066
0.656016 -0.406258 0.234874 0.745359 0.195929 0.637222
-0.366542 -0.353519 0.049873 0.315425 -0.918725 0.237594
0.490611 0.097118 0.148994 -0.099967 0.385884 0.917115
-0.264450 0.001611 0.173247 -0.127580 -0.008732 0.991790
0.240942 -0.201208 0.021438 0.351580 -0.885681 0.303252
0.624110 0.047675 -0.169290 0.616029 0.158314 -0.771651
-0.246037 0.220076 -0.189609 -0.034330 0.535426 -0.843884
-0.247060 -0.162423 -0.385335 0.402203 0.035455 -0.914864
-0.320704 -0.061487 0.173887 -0.228442 -0.208040 0.951070
-0.004815 -0.217314 0.083173 0.214744 -0.589775 0.778492
-0.486693 0.180805 -0.094347 -0.851015 -0.174013 -0.495473
-0.168323 -0.292440 -0.039242 0.066907 -0.871357 0.486067
0.684270 0.041008 0.104643 0.785195 -0.006017 0.619219
0.029092 0.201941 -0.146031 0.041780 0.852823 -0.520525
0.645832 0.071909 -0.146977 0.616029 0.158314 -0.771651
0.392912 -0.490998 -0.286679 0.428955 -0.131829 0.893655
-0.236604 -0.208973 0.120646 0.132181 -0.340421 0.930936
-0.429494 0.445347 0.122737 -0.065848 0.992503 -0.102961
-0.499921 -0.560342 -0.559307 0.052455 -0.817925 -0.572929
0.430268 -0.144892 0.000354 0.036964 -0.993667 0.106107
-0.500159 -0.561626 -0.557495 0.052455 -0.817925 -0.572929
0.325134 -0.176277 -0.093580 0.606569 -0.575318 -0.548711
-0.190863 -0.057747 -0.351428 0.263340 0.019609 -0.964504
-0.168649 0.156987 0.156427 0.312540 0.166415 0.935214
-0.330510 0.454220 0.552535 0.404053 0.911217 -0.080156
0.686974 0.084583 -0.007043 0.914663 -0.060012 -0.399737
0.093201 0.007163 -0.298823 0.209522 0.069543 -0.975328
0.308518 0.014537 0.125911 0.149902 0.127864 0.980398
0.614348 -0.096994 -0.016290 0.177492 -0.675515 -0.715665
-0.488009 0.439591 0.168978 -0.318029 0.926125 0.202852
-0.569014 0.302008 0.076422 -0.969473 -0.043818 -0.241252
-0.222817 0.227730 0.150078 0.872742 0.020855 0.487736
-0.258925 -0.318714 -0.176963 -0.368558 -0.787681 0.493685
0.260178 0.068341 -0.227008 0.184749 0.167672 -0.968377
0.181827 0.191999 0.001728 -0.034608 0.798080 0.601557
-0.296645 0.422822 0.493307 -0.781905 -0.030472 -0.622653
-0.127059 -0.235882 -0.239400 0.087833 -0.802426 -0.590252
-0.291048 -0.307532 0.020496 0.546224 -0.758531 -0.355345
0.296668 -0.180344 -0.106637 0.272210 -0.582464 -0.765922
0.661644 0.348279 0.264548 -0.183088 0.547051 -0.816832
0.307982 -0.001515 0.128086 0.149902 0.127864 0.980398
0.248087 0.180219 0.036909 -0.209688 0.812891 0.543359
-0.005234 0.084769 -0.275366 -0.524437 0.756039 -0.391627
-0.253876 0.319630 -0.075925 0.037157 0.889153 -0.456098
0.689230 0.497427 0.341638 0.106314 0.201484 0.973705
0.637927 -0.200963 0.098527 0.218711 -0.281595 -0.934275
-0.209432 -0.194318 -0.298340 0.405257 -0.824829 -0.394239
-0.385795 -0.066166 0.132196 -0.775257 -0.186777 0.603400
-0.587736 0.205001 0.344991 -0.997251 -0.016813 0.072159
-0.711667 0.377554 0.258409 0.284504 0.483725 0.827688
0.690827 0.059280 0.005572 0.914663 -0.060012 -0.399737
-0.481691 0.306816 0.439382 0.207994 -0.427535 0.879745
-0.363713 0.188341 -0.173190 -0.427683 0.470896 -0.771585
0.509257 -0.222014 -0.248200 -0.137786 0.208008 -0.968374
0.648587 0.198361 -0.001462 0.911495 0.316808 0.262317
0.646840 -0.414571 0.181115 0.245114 -0.237622 -0.939923
-0.536366 0.211118 0.005063 -0.895918 -0.443685 0.021804
0.546709 -0.194941 0.116687 -0.472986 -0.480135 -0.738752
-0.437101 -0.027973 -0.156196 -0.987288 -0.011592 -0.158520
-0.277553 0.323635 0.218692 0.706985 0.217790 0.672859
-0.300130 0.337656 -0.051878 0.268405 0.863257 -0.427488
0.377650 0.219192 -0.082548 0.051703 0.990863 -0.124570
0.373352 0.066058 0.143891 -0.285860 -0.177639 0.941663
-0.270876 0.098014 -0.283023 -0.239614 0.492292 -0.836800
0.643418 0.341576 0.272589 -0.593006 -0.477710 -0.648179
-0.280221 -0.036693 0.172657 0.036253 -0.048906 0.998145
-0.490821 0.173997 0.471684 0.892982 0.196502 0.404932
-0.601209 0.297086 0.391399 -0.556125 0.231402 0.798234
-0.396063 -0.336614 -0.383355 -0.563050 0.104995 0.819726
0.208751 0.102327 0.099482 -0.005799 0.535471 0.844534
0.543571 -0.100693 0.190085 -0.193831 0.135980 0.971565
-0.577063 0.125822 0.432322 -0.432555 -0.900367 -0.047277
-0.443928 -0.497634 -0.491980 -0.398886 -0.018123 0.916821
0.148630 0.129096 -0.228274 0.334843 0.721423 -0.606159
-0.352604 0.050899 -0.286463 -0.315710 0.210369 -0.925242
-0.371141 -0.396421 -0.472539 0.175447 0.329594 -0.927678
0.530598 -0.483443 0.272322 -0.407512 0.454011 0.792343
-0.596244 -0.455430 -0.028478 -0.481529 0.337529 0.808829
-0.331363 -0.294849 -0.429240 0.035191 0.334634 -0.941691
0.358836 0.223495 -0.063988 -0.066048 0.910783 -0.407568
0.013026 -0.055584 0.156123 -0.285721 -0.056310 0.956657
-0.692933 0.322975 0.098721 0.145162 0.220159 -0.964603
0.664114 0.164010 -0.027322 0.787120 0.163806 0.594651
-0.538330 0.451112 0.236417 0.080568 0.846933 -0.525560
-0.345799 0.111273 -0.256184 -0.526299 0.558521 -0.641142
-0.307581 -0.326289 0.033361 0.565070 -0.739519 -0.365797
-0.556111 0.222785 0.169416 -0.768628 -0.348606 -0.536364
-0.484793 0.412561 0.071790 -0.557816 0.632648 -0.537213
-0.441680 -0.120014 -0.022304 -0.991275 0.044302 -0.124144
0.481430 0.128017 -0.206594 0.122035 0.357865 -0.925765
-0.477907 0.029984 0.085347 0.129724 -0.830385 0.541878
0.649624 -0.209261 0.104523 0.494684 -0.232561 -0.837379
0.681012 -0.269293 0.197135 -0.263804 0.053567 0.963088
-0.323932 0.135587 0.210861 0.215180 -0.498237 0.839915
-0.626948 0.350458 0.210964 -0.154556 -0.956663 0.246795
0.028899 0.224472 -0.003815 0.226323 0.906086 0.357471
-0.524153 -0.441143 -0.006337 -0.123295 -0.670497 0.731596
0.394473 0.202618 0.060368 0.014247 0.895793 0.444243
-0.332203 0.080075 0.176104 0.157060 -0.726179 0.669325
-0.220938 -0.253063 0.074109 0.314750 -0.036999 0.948453
-0.086914 0.109733 0.136078 0.575256 0.253823 0.777595
-0.429479 -0.307991 0.065554 -0.575776 -0.243358 0.780550
0.065524 -0.260906 -0.143249 0.176052 -0.879113 -0.442907
0.565344 -0.204139 -0.028942 -0.489715 -0.289017 0.822586
-0.527949 0.077901 0.190908 -0.109427 -0.986929 0.118311
0.399390 -0.139528 0.094610 -0.048275 -0.995583 0.080519
-0.381738 -0.321411 -0.378531 -0.281342 0.089846 0.955392
-0.310208 -0.340059 -0.424186 0.805814 -0.292086 -0.515120
-0.312234 0.410058 0.553983 0.188575 -0.573209 0.797415
-0.201216 -0.310993 -0.147140 -0.111803 -0.731870 0.672210
-0.544645 0.448763 0.309987 -0.324961 0.929583 0.173998
-0.455497 0.134558 0.351406 0.511455 -0.852772 0.105801
0.034985 0.051177 -0.294091 0.052916 0.373222 -0.926232
-0.580694 0.126925 0.457133 -0.706250 -0.707698 -0.019346
-0.571674 0.176678 0.482121 -0.358425 0.358520 0.861971
0.646626 0.290582 0.014941 -0.387259 0.920717 0.048061
-0.468333 0.454538 0.340091 -0.396814 0.913761 0.087062
0.508650 -0.137437 -0.006237 0.120277 -0.987905 -0.097862
-0.444074 0.058849 -0.127194 -0.872728 0.115656 -0.474310
-0.436092 0.330700 0.432623 0.197195 0.207138 0.958232
-0.075594 -0.289465 -0.035160 0.116964 -0.991423 0.058316
-0.405964 -0.031158 0.116958 -0.743851 -0.151314 0.650992
-0.400761 -0.479122 -0.478254 -0.017357 -0.310919 0.950278
0.590355 -0.161779 -0.020155 0.409890 -0.023748 0.911826
0.550647 -0.305595 -0.192494 0.050482 0.106576 0.993022
-0.778202 0.411317 0.335446 0.122534 0.889875 -0.439441
-0.204525 0.348638 0.347099 -0.074655 -0.990209 0.117955
-0.011959 0.235741 -0.014601 0.257558 0.957089 0.132831
0.537236 -0.232991 -0.242067 0.691223 0.480389 -0.539849
0.680781 -0.118919 0.114257 0.899645 -0.425027 -0.099957
0.538204 -0.358024 -0.219720 0.017199 -0.513726 0.857782
-0.261398 0.313054 -0.089358 0.037157 0.889153 -0.456098
0.396281 -0.470108 -0.278817 0.134395 -0.185246 0.973459
-0.339818 0.344330 0.334459 -0.179788 -0.284325 0.941719
-0.405752 -0.332518 -0.393551 -0.747996 -0.120441 0.652683
0.501598 0.172861 -0.160261 0.328331 0.781495 -0.530532
-0.608028 0.321261 0.225550 -0.804474 -0.529101 -0.269953
-0.528047 0.154230 0.216718 -0.642266 -0.709239 -0.290643
-0.392327 -0.415262 -0.488983 0.445508 0.486204 -0.751750
-0.341858 0.298125 -0.094152 0.001983 0.841451 -0.540330
0.446635 0.043304 -0.251530 0.352110 0.514272 -0.782012
0.462955 0.074853 0.155348 -0.099967 0.385884 0.917115
-0.333656 0.418290 0.188087 0.635631 0.741994 0.213115
-0.590647 -0.531238 -0.092695 -0.287130 0.031420 -0.957376
-0.382407 -0.509230 -0.492389 0.961234 -0.183197 0.206077
0.593235 0.178323 0.081822 0.080067 0.691132 0.718279
-0.125687 -0.296501 -0.054314 0.116964 -0.991423 0.058316
-0.454536 0.439153 0.093457 -0.300081 0.910245 -0.285315
-0.350918 -0.393344 -0.433553 0.488617 -0.662542 0.567708
-0.394678 0.166833 0.300527 0.484839 -0.873965 -0.033402
-0.618243 0.331492 0.194835 -0.377306 -0.660046 0.649600
-0.292351 0.402077 0.326049 0.481410 0.750906 -0.452090
0.577358 -0.153779 -0.190946 0.692692 -0.660557 0.289556
0.465257 0.144817 -0.201888 0.135718 0.615462 -0.776394
0.142929 0.139005 -0.219631 0.334843 0.721423 -0.606159
-0.521308 0.335766 0.420008 -0.374361 0.318959 0.870700
-0.538167 0.194640 0.116699 -0.939884 -0.331021 -0.083919
0.103866 -0.260459 -0.024247 0.199889 -0.931353 0.304346
-0.408783 0.405876 0.387889 0.209822 0.428224 0.878976
-0.234578 -0.297809 -0.110313 -0.124313 -0.982532 0.138481
-0.098493 -0.103276 -0.306696 0.029432 0.014837 -0.999457
0.400178 -0.181456 -0.209470 -0.597048 -0.774978 0.207226
-0.264802 0.434565 0.488690 0.376592 0.920560 0.103669
-0.702559 0.354067 0.115140 0.006257 0.696609 -0.717423
-0.582279 0.211230 0.444016 -0.864592 0.422908 0.271346
0.660210 -0.044455 -0.097309 0.812282 -0.543697 0.211167
0.499712 0.021404 0.186581 -0.189303 0.107959 0.975966
-0.421477 -0.027045 0.074720 -0.956471 0.012570 0.291555
-0.274026 -0.302331 -0.161771 -0.358243 -0.793249 0.492359
-0.576186 0.261423 0.417965 -0.880617 0.094859 0.464237
0.668456 0.435254 0.286779 -0.384194 0.232884 -0.893398
-0.364286 -0.326104 0.066082 0.057771 -0.608353 0.791561
0.267936 0.213883 -0.065618 -0.151203 0.977199 -0.149060
-0.202013 -0.185979 -0.308146 0.405574 -0.824314 -0.394988
0.380688 -0.123536 -0.247909 -0.701300 -0.233710 -0.673468
0.684795 -0.005358 0.013415 0.921286 -0.215415 -0.323772
0.135749 0.150109 -0.210382 0.334843 0.721423 -0.606159
0.691168 -0.076935 0.084874 0.962543 -0.168235 -0.212622
-0.398493 -0.341520 -0.386894 -0.747996 -0.120441 0.652683
0.422766 -0.410680 -0.310977 0.108284 0.598455 -0.793805
-0.736579 0.362962 0.127044 -0.167261 0.765829 -0.620910
-0.436785 -0.036614 -0.155792 -0.882565 -0.250259 -0.398057
0.432585 -0.127707 0.136776 -0.533883 -0.088128 0.840953
-0.115709 -0.300968 -0.169428 0.440735 -0.270387 -0.855946
0.087273 0.156515 -0.210988 0.111547 0.819678 -0.561859
0.118139 -0.171803 -0.252941 0.327458 -0.773003 -0.543358
0.584068 -0.209781 0.107308 -0.394351 -0.793743 -0.463097
-0.726105 -0.566588 -0.042978 -0.699993 -0.141485 0.699994
-0.265544 0.385647 0.486600 -0.082946 -0.995344 0.049086
-0.280257 0.434782 0.493953 -0.114824 0.947373 -0.298831
-0.169876 -0.266077 0.008297 0.095497 -0.932180 0.349173
-0.123224 0.192964 -0.200874 0.231670 0.757767 -0.610014
-0.169165 0.078027 0.171179 0.219737 0.252912 0.942206
0.328214 -0.449070 -0.315452 -0.789069 0.600856 0.127838
-0.054638 0.216899 -0.151575 0.218374 0.696540 -0.683480
-0.184835 0.213538 0.139393 0.293755 0.382710 0.875923
-0.408790 0.059739 -0.213446 -0.684683 0.192954 -0.702835
-0.368655 0.302214 -0.087882 0.001983 0.841451 -0.540330
0.517091 -0.164044 0.092511 -0.272446 -0.891996 -0.360716
0.425830 0.226108 -0.068466 0.003261 0.944718 -0.327869
0.738828 0.328407 0.077937 -0.816221 -0.036330 0.576596
0.442425 0.224077 -0.074155 0.003261 0.944718 -0.327869
-0.582314 0.152997 0.378201 -0.897987 -0.206307 -0.388660
0.473960 0.125210 0.140961 -0.005257 0.191222 0.981533
0.155746 0.053364 -0.276594 0.493447 0.341269 -0.800028
0.674573 0.473213 0.298439 -0.067325 0.300919 -0.951270
0.637760 0.453339 0.286804 0.439836 0.241819 -0.864909
0.603192 -0.190399 0.088180 0.079862 -0.530942 -0.843637
0.158898 -0.189307 0.099615 0.249060 -0.747927 0.615284
-0.095572 -0.179847 -0.284023 0.081487 -0.604100 -0.792732
-0.315763 -0.212081 -0.292583 -0.470241 -0.582771 0.662760
-0.354918 -0.302516 -0.440338 0.133493 0.631878 -0.763485
-0.559817 0.450346 0.233003 -0.105114 0.717536 -0.688544
0.527497 0.181335 0.082953 -0.203845 0.707685 0.676483
-0.335741 -0.287141 -0.079947 -0.106449 -0.991347 0.076815
-0.273478 0.394098 0.327090 0.352475 0.875326 -0.331007
-0.492207 -0.536683 -0.598664 0.099480 -0.852540 -0.513107
0.614368 -0.243515 0.139939 -0.387262 -0.797009 -0.463470
-0.584536 0.149378 0.403656 -0.985741 -0.164508 -0.035372
-0.086794 0.267498 -0.025900 0.423477 0.904431 -0.051693
-0.050175 -0.279621 -0.014137 0.146346 -0.831378 0.536091
0.366310 -0.015190 -0.248513 -0.267616 0.036204 -0.962845
-0.214089 0.242104 -0.171768 0.170010 0.782485 -0.599011
-0.283935 0.178577 -0.218501 -0.133172 0.696039 -0.705546
-0.106769 -0.213417 0.065489 -0.157459 -0.416991 0.895168
0.685119 -0.017524 0.115680 0.863505 0.053902 0.501452
-0.462037 0.335827 0.442799 -0.158280 0.198533 0.967229
-0.481791 0.036216 0.095826 0.129724 -0.830385 0.541878
0.436026 0.013402 -0.257738 0.113836 0.053664 -0.992049
-0.289098 0.393795 0.517114 -0.010782 -0.943908 0.330032
-0.562657 0.297479 0.051701 -0.969473 -0.043818 -0.241252
-0.356082 0.326044 0.325968 0.977759 0.000167 0.209731
-0.589208 0.202719 0.317717 -0.985891 -0.148321 -0.077591
-0.382389 0.449740 0.321242 0.208698 0.976622 0.051524
-0.352485 -0.138490 -0.279256 -0.738293 -0.619802 -0.266023
0.349657 0.226962 -0.054752 -0.066048 0.910783 -0.407568
0.552672 -0.223696 0.157892 -0.394351 -0.793743 -0.463097
0.373722 0.054864 -0.237119 -0.431853 0.306287 -0.848346
0.561430 -0.136866 -0.017612 -0.479974 0.146865 0.864902
-0.041787 0.114307 0.104432 0.214575 0.702415 0.678654
-0.435828 -0.446223 -0.516067 -0.397707 0.811882 -0.427408
-0.581028 0.217678 0.228515 -0.884419 -0.347887 -0.311090
0.246908 0.071409 -0.230907 0.339567 0.134296 -0.930945
-0.541154 0.432459 0.211514 -0.105114 0.717536 -0.688544
0.124873 -0.115107 -0.280106 0.330635 -0.067441 -0.941346
0.360868 -0.143489 -0.123924 0.221058 -0.896632 -0.383645
0.306749 -0.189399 -0.025425 0.302834 -0.921156 0.244466
-0.099110 -0.094845 -0.306589 0.029432 0.014837 -0.999457
-0.398549 0.221862 0.371036 0.724213 -0.222128 0.652820
0.324632 -0.454596 -0.329833 -0.630305 0.763764 -0.139213
0.555351 0.192366 -0.122064 0.165588 0.849566 -0.500818
0.289484 -0.168101 0.061490 0.355088 -0.882843 0.307411
-0.291174 -0.212685 0.117671 0.068687 -0.458493 0.886040
0.528375 0.181142 -0.146333 0.039667 0.756318 -0.653000
0.103301 -0.096597 -0.289212 0.367561 -0.046322 -0.928845
-0.585657 0.422705 0.202934 -0.010835 0.741138 -0.671265
0.566935 -0.527070 0.261936 0.350697 -0.934289 -0.064152
-0.091888 -0.206507 -0.261180 0.084630 -0.651170 -0.754198
-0.257135 0.376993 0.439553 -0.322649 -0.927060 0.190936
-0.474346 -0.433300 -0.006920 0.291338 -0.911217 0.291214
-0.448548 -0.291585 0.048553 -0.646498 0.050106 0.761269
-0.483903 0.139585 0.448516 0.647893 -0.744977 -0.158887
-0.533548 0.187046 0.146489 -0.854556 -0.508683 0.104763
-0.404464 0.139265 -0.176740 -0.650201 0.436406 -0.621923
-0.051395 0.013555 0.141434 -0.030672 0.026742 0.999172
-0.324103 -0.006988 -0.327072 -0.524774 0.575333 -0.627378
-0.316682 -0.255490 -0.414527 -0.021803 0.393648 -0.919002
0.286293 0.098160 -0.216572 0.201477 0.182246 -0.962389
-0.478709 0.381514 0.408991 -0.695222 0.477534 0.537241
-0.180932 0.126211 -0.263415 -0.023218 0.652553 -0.757387
0.434393 -0.401312 -0.257560 -0.366484 -0.083966 0.926628
-0.279199 0.370957 0.153833 0.782814 0.574617 0.238782
-0.435155 -0.111463 -0.067517 -0.986713 0.015069 -0.161774
-0.313513 -0.066361 0.174468 0.078217 0.125506 0.989005
-0.725574 -0.568700 -0.047110 -0.000000 -1.000000 0.000000
-0.298561 -0.025196 -0.342809 -0.333041 0.123449 -0.934796
0.602081 0.482816 0.338508 -0.275106 -0.404175 0.872330
-0.590193 0.151305 0.428633 -0.940064 -0.179119 -0.290166
0.292654 0.195510 -0.140622 -0.171223 0.618870 -0.766605
-0.142018 0.229706 -0.166442 0.218374 0.696540 -0.683480
0.425628 -0.143562 0.056635 0.039005 -0.997119 -0.065058
-0.302677 -0.114515 -0.367206 -0.307140 0.533008 -0.788396
-0.307079 0.355859 -0.029800 0.455361 0.808220 -0.373399
0.629958 0.506583 0.358410 -0.282266 -0.412231 0.866252
0.361463 0.030083 0.133496 -0.285860 -0.177639 0.941663
0.341353 -0.500137 -0.375185 0.263200 0.208776 -0.941880
-0.021913 0.242667 -0.094568 0.371221 0.922439 -0.106305
-0.519243 0.150613 0.044265 -0.976450 -0.208177 -0.056629
0.648888 0.176547 -0.006515 0.999473 0.005958 0.031899
-0.283932 0.347099 0.310654 -0.039921 -0.064750 0.997103
0.610979 0.099280 -0.163295 0.588886 0.330279 -0.737651
0.234776 0.138088 -0.194490 0.172389 0.703262 -0.689714
-0.702057 0.322370 0.118102 -0.196426 -0.866686 0.458554
-0.149835 -0.302132 -0.067226 0.005142 -0.985671 0.168599
-0.234005 0.338282 0.323692 -0.368206 -0.567048 0.736805
-0.552407 0.289088 0.428166 -0.602892 0.297989 0.740084
-0.412496 -0.543958 -0.542737 0.334188 -0.921950 -0.195774
0.516215 -0.363554 -0.271084 0.311938 0.203286 -0.928100
-0.151839 0.083435 -0.288304 0.154966 0.496083 -0.854334
0.130143 -0.263246 -0.057429 0.183890 -0.981248 0.057772
-0.121681 0.149597 0.140598 0.372499 0.231060 0.898808
-0.017866 0.094675 0.115712 0.082152 0.541971 0.836372
0.215253 -0.231211 -0.036008 0.346383 -0.885073 0.310908
-0.537804 0.077889 0.222949 -0.567876 -0.817308 0.097591
0.389934 0.151628 0.133989 -0.171342 0.545964 0.820100
-0.380273 -0.249280 -0.099520 -0.725856 -0.640455 -0.250900
-0.234844 0.410813 0.431616 0.777279 0.626226 0.060646
0.108066 -0.248410 -0.153542 0.086998 -0.839924 -0.535686
-0.140374 0.280583 -0.100088 0.307890 0.897634 -0.315368
0.215553 -0.282100 -0.133028 0.379540 -0.117387 -0.917698
-0.322713 -0.327361 -0.371193 0.492487 -0.544080 0.679289
-0.212346 0.341237 0.315596 0.665227 0.147828 -0.731861
0.511347 -0.312907 -0.262251 0.174081 0.537925 -0.824823
-0.353310 0.334866 0.329160 0.442061 -0.747463 0.495864
-0.400831 -0.060944 -0.220789 -0.877241 0.009378 -0.479959
-0.409930 -0.463078 -0.533814 0.049442 0.659644 -0.749950
-0.092947 -0.088628 0.126366 -0.163703 -0.294798 0.941433
0.474927 0.029451 0.180884 -0.189303 0.107959 0.975966
0.162491 -0.264327 -0.105672 -0.330324 -0.875169 -0.353505
0.582256 -0.122071 -0.095987 0.653734 -0.742628 0.145380
-0.168895 -0.314596 -0.185858 0.257787 -0.275155 -0.926194
0.551559 0.239510 -0.034757 -0.026719 0.944198 -0.328293
0.654659 -0.001089 -0.137533 0.923100 0.298127 -0.242915
-0.539206 0.288312 -0.005492 -0.785778 0.290798 -0.545885
-0.721705 0.367778 0.267445 0.347078 -0.793037 0.500629
0.683772 -0.373777 0.170431 0.027547 -0.355438 -0.934294
-0.408897 0.079971 -0.200081 -0.699864 0.377043 -0.606654
0.510845 -0.137296 -0.004963 0.120277 -0.987905 -0.097862
0.675520 -0.101765 0.041990 0.499224 -0.676975 -0.540815
0.291624 -0.215037 -0.098567 0.667421 -0.377747 -0.641760
0.678304 -0.391807 0.222268 0.267080 0.158756 0.950508
-0.788831 0.408819 0.310233 -0.458023 0.820350 -0.342406
-0.381575 -0.450810 -0.517278 0.559137 0.715109 -0.419507
-0.458413 0.167199 0.427678 0.892164 0.078900 0.444768
-0.394915 -0.236796 -0.207659 -0.094762 0.342917 -0.934574
-0.508360 0.201953 0.476723 0.630271 0.222895 0.743691
-0.170043 -0.147808 -0.353928 0.395125 -0.526482 -0.752790
-0.619785 0.345847 0.290397 -0.997655 -0.031496 -0.060763
-0.343409 0.427633 0.146816 0.129637 0.976002 -0.174969
0.346073 0.098163 -0.221667 -0.162083 0.117439 -0.979764
-0.773078 0.402327 0.283167 -0.108228 0.943961 -0.311809
-0.660546 0.353968 0.207475 -0.041040 -0.981012 0.189555
0.442894 0.210374 -0.125604 0.051703 0.990863 -0.124570
0.427836 -0.035000 0.163570 -0.489255 -0.255981 0.833729
0.402322 -0.462129 -0.339063 0.421191 0.121338 -0.898819
0.520189 -0.532401 0.233328 -0.098901 -0.963493 -0.248797
-0.127127 0.230975 0.101942 0.412285 0.556834 0.721081
-0.534352 0.266230 -0.024242 -0.785778 0.290798 -0.545885
-0.346573 -0.216970 -0.316148 -0.699012 -0.245150 0.671777
-0.352294 -0.112777 0.151618 -0.590551 -0.247471 0.768120
0.065800 0.226466 -0.061977 0.166878 0.970460 -0.174237
0.267442 -0.159957 0.093084 0.247709 -0.829520 0.500537
0.669665 0.520604 0.315619 -0.439477 0.481189 -0.758496
0.159388 0.200049 -0.115469 -0.014340 0.933475 -0.358355
-0.583904 0.149235 0.386709 -0.985741 -0.164508 -0.035372
-0.311261 -0.253164 -0.413659 -0.021803 0.393648 -0.919002
-0.349729 0.052140 0.169627 0.073757 -0.006475 0.997255
-0.442555 0.324463 -0.043899 -0.325276 0.677904 -0.659273
-0.394511 0.017917 -0.234011 -0.728148 -0.008475 -0.685368
-0.777727 0.386380 0.350865 0.709514 -0.500857 0.495713
-0.553108 0.459575 0.269127 -0.132790 0.990932 0.020513
0.579370 0.137593 -0.171179 0.379741 0.594729 -0.708586
-0.401454 0.348479 0.404686 0.705889 0.193246 0.681452
0.472926 -0.409724 -0.285457 0.649617 -0.497951 -0.574494
-0.571102 0.455727 0.282562 -0.495750 0.594384 0.633198
0.530374 -0.142430 -0.110781 0.187599 -0.912659 0.363127
-0.325896 -0.337987 -0.377396 0.492487 -0.544080 0.679289
0.619235 -0.238406 0.189535 -0.164347 -0.652197 0.740019
0.012071 0.167067 -0.204362 0.039020 0.848664 -0.527491
0.026121 -0.215011 -0.232845 0.145387 -0.751388 -0.643645
-0.427458 0.436198 0.368752 -0.027710 0.672514 0.739565
-0.157056 0.025647 0.177180 0.275822 -0.012047 0.961133
0.601140 -0.471542 0.272630 0.383797 -0.021275 0.923172
0.196217 -0.273571 -0.093546 0.156760 -0.601458 0.783374
-0.127886 -0.271279 -0.007352 0.078034 -0.871288 0.484528
0.504331 0.171379 0.102443 0.069436 0.872982 0.482784
-0.386226 -0.215050 -0.207288 -0.559188 0.049922 -0.827536
-0.448567 0.025021 -0.113957 -0.937726 0.160760 -0.307938
0.250671 -0.222240 -0.049929 0.346383 -0.885073 0.310908
-0.471952 0.261028 0.432944 0.702929 0.043185 0.709948
-0.408950 -0.545744 -0.517962 0.366447 -0.663608 0.652182
-0.488748 0.313646 0.440753 -0.427344 0.154477 0.890794
-0.253847 -0.159748 -0.387782 -0.040577 0.404633 -0.913578
-0.524911 0.110595 0.246321 -0.926912 0.371758 -0.051291
-0.376960 -0.261248 -0.174472 -0.662557 -0.663152 0.348205
-0.327003 0.307556 0.280804 0.329831 0.164916 0.929524
0.214689 0.188945 0.012065 -0.170624 0.823232 0.541458
-0.453598 -0.022201 0.011765 -0.745165 -0.593765 0.303599
-0.653094 0.415634 0.198468 0.034467 0.733219 -0.679119
-0.508501 0.126974 -0.019421 -0.957520 -0.208910 -0.198776
-0.426885 -0.247705 0.029660 -0.822318 0.568313 -0.028511
-0.500171 -0.539480 -0.564088 -0.976747 0.201971 -0.071927
-0.179082 -0.189628 -0.287122 0.120539 -0.664170 -0.737800
0.262044 -0.067612 0.121407 0.182387 -0.137567 0.973555
0.727851 -0.279402 0.189788 0.737785 0.074660 0.670895
0.537724 0.239343 -0.034112 -0.026719 0.944198 -0.328293
-0.693229 0.380898 0.168174 -0.550766 0.830573 0.082500
-0.330608 -0.143908 0.149039 -0.154250 -0.303927 0.940125
-0.411373 -0.342737 -0.416598 -0.942975 0.331486 0.030266
0.336357 0.025962 -0.224202 -0.433233 -0.254010 -0.864748
0.261423 -0.201473 -0.114853 0.563104 -0.525854 -0.637489
-0.294195 -0.244479 0.101453 0.068687 -0.458493 0.886040
0.336029 0.024522 -0.223615 -0.433233 -0.254010 -0.864748
0.671962 0.105149 -0.108947 0.836998 0.319459 -0.444275
-0.414970 -0.002375 0.107432 -0.563513 -0.539857 0.625306
0.112178 -0.193083 0.101537 0.049388 -0.389805 0.919572
-0.191196 0.303597 -0.075615 0.294634 0.954617 -0.043548
0.444454 0.237039 -0.003593 -0.025627 0.999113 -0.033407
0.581709 -0.321513 -0.233352 0.591405 -0.035803 -0.805580
-0.264031 -0.291895 0.064091 0.255701 -0.737212 0.625408
-0.674439 0.358903 0.218445 -0.230659 -0.955088 0.186018
0.176012 0.015672 0.141278 0.194513 0.345870 0.917899
0.565340 -0.473044 0.278335 -0.218218 0.504965 0.835099
-0.121719 0.173433 0.130480 0.393440 0.408384 0.823667
0.130627 0.188413 0.010764 0.098841 0.786688 0.609387
-0.307737 0.433941 0.510182 -0.208834 0.931465 -0.297929
0.149082 -0.233385 0.014787 0.168386 -0.918926 0.356681
-0.239313 0.304282 0.150610 0.896915 0.188734 0.399903
-0.228291 -0.155371 0.141069 0.079418 -0.461996 0.883319
0.408077 -0.424250 -0.267846 -0.259783 -0.127600 0.957200
-0.456610 0.461665 0.279034 0.122036 0.992164 -0.026775
0.146356 0.220435 -0.067469 0.185600 0.862097 -0.471530
0.687328 0.291937 -0.004334 0.064658 0.663163 -0.745677
-0.569874 0.322069 0.084087 -0.987290 0.076774 -0.139153
-0.060688 -0.195286 -0.267367 0.084630 -0.651170 -0.754198
-0.422609 0.272796 -0.095486 -0.297943 0.601882 -0.740924
-0.252169 -0.223628 -0.304718 0.364713 -0.699848 0.614164
0.030882 0.133835 -0.229299 0.112877 0.532124 -0.839109
0.537437 -0.536600 0.253793 0.290133 -0.924962 -0.245497
-0.432909 -0.544504 -0.569097 0.219738 -0.919770 -0.325175
-0.594299 0.165754 0.434755 -0.974927 -0.071154 -0.210844
0.681240 0.042215 -0.017605 0.935778 -0.026087 -0.351624
-0.424864 -0.218642 0.045894 -0.880159 -0.390282 0.270184
-0.349881 0.262126 0.304672 0.883286 -0.313279 0.348800
0.220571 0.191002 -0.143629 -0.072532 0.922426 -0.379302
-0.427848 0.437007 0.081743 0.136281 0.910105 -0.391326
-0.368313 -0.024922 -0.302969 -0.907367 0.054885 -0.416741
-0.107361 -0.181106 -0.284275 0.081487 -0.604100 -0.792732
-0.379994 0.129708 0.233493 0.037228 -0.479373 0.876822
-0.281248 0.379703 0.409146 0.151015 -0.888307 0.433712
-0.300425 0.374036 0.378967 -0.177605 -0.931559 0.317260
0.459350 -0.003036 0.181456 -0.189303 0.107959 0.975966
-0.466612 0.456706 0.325182 -0.396814 0.913761 0.087062
-0.410692 0.152778 0.257019 0.116176 -0.484058 0.867289
0.167138 0.215724 -0.074949 -0.014340 0.933475 -0.358355
0.520313 -0.152305 0.067214 -0.256714 -0.836648 -0.483858
-0.424375 -0.173449 0.011248 -0.935178 -0.276211 0.221699
-0.558249 0.256714 0.082699 -0.955830 -0.290918 -0.041907
-0.616180 -0.543884 -0.038848 0.546418 -0.452773 0.704573
0.350553 0.226309 -0.000464 -0.238647 0.862243 0.446749
0.637118 -0.464582 0.229270 0.931235 -0.335889 0.141348
-0.234983 0.410182 0.439911 0.777279 0.626226 0.060646
-0.429898 -0.039809 0.036351 -0.508623 -0.803070 0.310452
-0.498040 0.216756 0.463606 0.624183 0.218802 0.750014
0.541096 0.252277 0.000978 -0.266147 0.862471 0.430477
-0.320117 -0.255208 -0.221996 0.256535 -0.184247 -0.948811
-0.028579 -0.225298 0.074755 -0.125000 -0.678378 0.724001
-0.113670 -0.123837 -0.307449 0.029432 0.014837 -0.999457
-0.479304 -0.425958 0.010964 0.158807 -0.401265 0.902090
-0.409509 -0.337344 -0.417593 -0.942975 0.331486 0.030266
0.336868 -0.484634 -0.284737 -0.503552 0.411852 0.759482
0.534576 -0.508541 0.285359 -0.410220 0.292411 0.863838
0.522905 -0.139268 -0.237453 0.664002 0.104866 -0.740341
0.621640 0.184624 -0.109053 0.379741 0.594729 -0.708586
-0.694367 -0.516222 -0.088648 -0.354231 0.722233 -0.594054
0.234804 -0.206219 0.013919 0.351580 -0.885681 0.303252
-0.237882 0.375976 0.385742 -0.236751 -0.465022 0.853055
-0.577717 0.437752 0.307049 -0.324961 0.929583 0.173998
-0.295547 -0.228203 -0.407487 0.410386 -0.013881 -0.911806
-0.448149 0.322662 0.438615 0.444921 -0.478640 0.756934
-0.271214 0.426478 0.523735 0.720484 0.433175 0.541538
-0.133841 -0.131545 0.112451 0.924936 -0.319617 0.205762
0.467740 -0.348298 -0.275084 0.168414 0.375039 -0.911582
-0.457174 -0.532581 -0.594790 0.199598 -0.831976 -0.517664
-0.257441 -0.285236 -0.041630 -0.124313 -0.982532 0.138481
-0.144311 0.140098 -0.252572 -0.023218 0.652553 -0.757387
-0.253746 -0.220122 -0.278817 0.064325 -0.944167 -0.323128
-0.470794 -0.402342 0.021929 0.170780 -0.554530 0.814451
-0.431900 -0.305857 0.063630 -0.646498 0.050106 0.761269
-0.467052 0.437459 0.360197 -0.105127 0.695367 0.710925
-0.564767 -0.413956 -0.023929 -0.805871 0.574151 0.144643
0.624969 0.281785 0.008968 -0.387259 0.920717 0.048061
0.789838 0.300918 0.144712 0.099473 -0.994704 -0.025875
-0.379256 -0.081713 0.135786 -0.775257 -0.186777 0.603400
-0.184501 0.199565 -0.207064 0.060531 0.605862 -0.793264
-0.393963 0.370435 0.377619 0.823581 -0.293554 0.485325
-0.199408 -0.294094 -0.052382 -0.124313 -0.982532 0.138481
0.421317 -0.005855 0.165552 -0.475389 0.026304 0.879382
-0.379058 -0.216844 -0.212240 -0.559188 0.049922 -0.827536
-0.364136 0.435289 0.363116 -0.106288 0.490105 0.865159
-0.502398 0.182779 0.493296 0.897700 0.189706 0.397676
0.693681 0.028717 0.092591 0.785195 -0.006017 0.619219
0.733310 0.285690 0.033387 0.578653 -0.762030 -0.290639
-0.387338 -0.239956 -0.045302 -0.895806 -0.389467 0.214120
0.187791 0.169452 0.033227 -0.170624 0.823232 0.541458
0.107346 -0.267619 -0.059153 0.183890 -0.981248 0.057772
-0.391551 -0.322103 -0.455753 -0.522937 0.118576 -0.844084
-0.202920 -0.111635 -0.362442 0.248609 0.268211 -0.930729
-0.129801 -0.154422 0.091957 0.274543 -0.538856 0.796405
-0.809645 0.380870 0.296493 -0.983572 -0.047467 -0.174163
-0.640689 0.351820 0.207640 -0.154556 -0.956663 0.246795
0.482974 0.168668 0.110417 0.069436 0.872982 0.482784
0.572750 -0.151446 -0.069494 -0.243980 -0.017781 -0.969617
-0.559253 0.377951 0.120499 -0.402148 0.823658 -0.399831
-0.581982 0.190864 0.305373 -0.803872 -0.591142 -0.065883
0.562431 -0.145938 -0.203152 0.464627 -0.273453 -0.842226
-0.648924 -0.550985 -0.030580 0.025710 -0.464963 0.884957
0.621589 -0.475990 0.258440 0.759354 -0.329168 0.561275
