ply
format ascii 1.0
element vertex 427
property double x
property double y
property double z
property double nx
property double ny
property double nz
end_header
0.340806484758690 -0.827728938616035 0.843899396938291 -0.252422662179666 -0.889643337294324 0.380548987682202
0.391295105410523 -0.828354564241661 0.588886859071431 0.069972962783398 0.891684170638145 0.447217088574080
0.525095319061882 -0.828980189867287 0.809024855301606 0.350294730656025 -0.893732264883693 0.280243180792126
0.280021014227609 -0.829605815492912 0.737737845210665 0.443512785406000 0.895787983304980 -0.029330839534659
0.506731228371639 -0.830231441118538 0.625831507390364 -0.304611197481163 0.897851723871588 0.317921846229396
0.416026407903426 -0.830857066744163 0.859214799130705 -0.010174788918340 -0.899923923927497 0.435928210618908
0.326164350803257 -0.831482692369789 0.628148162961072 -0.283791375516425 -0.902005065688110 -0.325344919516938
0.546266846580174 -0.832108317995415 0.736734552184868 0.406064170410060 -0.912334382541841 0.052515368618988
0.313043340094055 -0.832733943621040 0.804626525185294 0.330989932096671 0.914359496128394 -0.233221732886257
0.437836377484347 -0.833359569246666 0.599217392987524 0.085191711352110 -0.916396661768485 -0.391100409890447
0.484054103490027 -0.833985194872292 0.832436396622341 0.199313611111969 -0.918446513245467 0.341657850389466
0.294561096306718 -0.834610820497917 0.693232128242110 -0.373265397066609 -0.920509767589438 -0.115476019697365
0.525673943165897 -0.835236446123543 0.668176102608423 0.348592258787355 -0.922587240338498 -0.165276196344556
0.373955147386381 -0.835862071749168 0.840730910172043 -0.143059704509365 -0.924679864426498 0.352847090493725
0.369338393565669 -0.836487697374794 0.613745183431228 0.131536710208563 0.926788713790863 0.351796494947558
0.524142723090324 -0.837113323000420 0.776000573654302 0.330166329791748 -0.928915033203501 0.167651590390267
0.303204153034644 -0.837738948626045 0.761101738501935 -0.351308756083204 -0.931060276424119 0.098533849840116
0.473957689477344 -0.838364574251671 0.624643067331044 -0.188975525878128 0.933226155661244 0.305576820143188
0.440657896007968 -0.838990199877297 0.837734718914191 0.086165737064544 -0.930299004007051 0.356537836561021
0.322917478749015 -0.839615825502922 0.660560826551093 -0.300818977280506 -0.932056079172749 -0.201939119996680
0.526501047559606 -0.840241451128548 0.710967836801849 0.353618650182644 -0.933833867289653 -0.053927345065884
0.345002505063353 -0.840867076754173 0.809843685768036 0.221080603953442 0.935633157297310 -0.275161700680615
0.411057067954970 -0.841492702379799 0.617273586474850 0.022909217654573 0.937454851841786 0.347352225420756
0.491150285836733 -0.842118328005425 0.801004624022505 -0.248184055349378 0.939299992179713 -0.236897022694521
0.310927320655802 -0.842743953631050 0.720913771524676 -0.337871664759443 -0.941169790158127 -0.006493400217911
0.494823531254988 -0.843369579256676 0.659292638928865 -0.249213202392572 0.943065669834486 0.220272381684295
0.402444054282797 -0.843995204882302 0.826021174571906 -0.033880622640798 -0.944989322466030 0.325341795400875
0.358756934138405 -0.844620830507927 0.643981417968876 -0.191839446357738 -0.946942780414998 -0.257870117386776
0.511043440616268 -0.845246456133553 0.746781197367592 0.309955426453751 -0.948928518432201 0.058841316419173
0.332815885971055 -0.845872081759178 0.773297643677281 0.262714411431915 0.950949595611125 -0.163327905248978
0.444062868733386 -0.846497707384804 0.636189035106126 0.080938610424126 -0.953009859600968 -0.291926615514849
0.454394182771076 -0.847123333010430 0.808733733704123 0.135218690180219 -0.955114249533957 0.263576698824329
0.332976767144697 -0.847748958636055 0.691101957276048 -0.271477041188085 -0.957269262123607 -0.099678362251235
0.498070942841558 -0.848374584261681 0.695751338721107 -0.260223335454083 0.959483701364065 0.108050185107963
0.376191803687354 -0.849000209887307 0.801196690088185 -0.114434921414048 -0.961769952580354 0.248803551169477
0.394401262030959 -0.849625835512932 0.645201607432596 0.082465234720338 0.964146304872419 0.252232804891392
0.483835307922517 -0.850251461138558 0.769127642569568 0.233349577987506 -0.964248442475391 0.125590268877948
0.338455137759019 -0.850877086764183 0.738994100801657 -0.251844677591045 -0.965722266142973 0.062886906783085
0.462172471153275 -0.851502712389809 0.665359823661945 0.140815963604110 -0.967267435739727 -0.211103226294008
0.421969468747878 -0.852128338015435 0.798752125065716 0.036678689244952 -0.968894941604765 0.244739179307222
0.363662576688816 -0.852753963641060 0.677553411111908 -0.155404740952595 -0.975102858517560 -0.158189069787832
0.483841531705777 -0.853379589266686 0.725741542757172 -0.213780094077654 0.976802437341164 -0.012452701735401
0.367537505934314 -0.854005214892312 0.769466954621839 0.160119393213227 0.978697921706294 -0.128499641885922
0.421370721666066 -0.854630840517937 0.663584152098869 -0.031531175104697 0.980867465691515 0.192106219952458
0.451552396754242 -0.855256466143563 0.772515544392225 0.096643487149826 -0.983519683524245 0.152804019946760
0.360928988114323 -0.855882091769189 0.715688724353824 -0.165725718396056 -0.984799122561450 -0.052016098126540
0.459822535208915 -0.856507717394814 0.697691375456093 0.151320251014424 -0.985806260749433 -0.072719996563201
0.403085654504649 -0.857133343020440 0.772147018506561 -0.056964382441327 -0.987199133441743 0.148972917219708
0.395537862995766 -0.857758968646065 0.686348634284897 0.054806831310782 0.990604250066044 0.125297370254777
0.452790252738117 -0.858384594271691 0.739192586314932 -0.111829149870568 0.993429999760072 -0.024312071403515
0.384106792018261 -0.859010219897317 0.738506246276453 0.091005122548937 0.994403837908768 -0.053657010932074
0.427667783297014 -0.859635845522942 0.700278173451793 -0.030692647702944 0.996810034450313 0.073673038461493
0.421616282874595 -0.860261471148568 0.744422782247209 0.017334715385189 -0.995828530723008 0.089582615727435
0.415754881400983 -0.860887096774194 0.725547703933260 0.000862821071314 0.999818651453375 0.019024188438788
-0.883862458305895 -0.342320142723368 -0.325349713651078 0.768400898167923 -0.446058382348795 0.458903017239051
-0.914399614643153 -0.345448270851497 -0.241733578877647 0.952109853017992 -0.299807019518737 -0.060021486430690
-0.911544909254527 -0.350453275856502 -0.299900096932612 0.729769082827099 -0.551747705505057 0.403746894996851
-0.923447888996673 -0.353581403984630 -0.204377269881289 0.817949564363180 -0.563582142080019 -0.115471551849711
-0.887107018367267 -0.355458280861507 -0.355629642734619 -0.632827440497077 0.655779939791708 -0.411682038860940
-0.932512943242553 -0.358586408989635 -0.266127511885728 -0.578538548959137 0.811808877316816 -0.079116964539017
-0.842795791731708 -0.360463285866512 -0.400864734464179 -0.594824605238988 0.389520293295814 -0.703176812838012
-0.922292984033933 -0.361714537117763 -0.163834336110209 0.913014754807548 0.298624853602908 0.277897920672960
-0.918696818273612 -0.363591413994640 -0.329435710192366 0.519084717972980 -0.802678205935820 0.293698405311584
-0.944749884309681 -0.366719542122768 -0.226136541888979 0.608993813959769 -0.792583159014270 -0.030634467609121
-0.882287049819971 -0.368596418999645 -0.385751255025303 0.521932744800230 -0.646831339367372 0.556053440163361
-0.943907869300017 -0.371724547127773 -0.294547755297051 -0.601633979042772 0.776514804512589 -0.187246665214461
-0.826734209215155 -0.373601424004650 -0.427029193959630 -0.708268517308699 0.554017208946790 -0.437516444925382
-0.946819505376395 -0.374852675255901 -0.182398511084016 -0.619993590528816 0.766517727341289 0.167506780085860
-0.918447202591665 -0.376729552132778 -0.360289475099791 -0.515579430195739 0.760534493405348 -0.394670920514430
-0.960589643209150 -0.379857680260906 -0.252816125167086 0.658242427173158 -0.750585332178125 0.057780327000141
-0.870335999414016 -0.381734557137783 -0.414505056988641 0.358010114182232 -0.744628606843237 0.563344473669464
-0.937932474965540 -0.382985808389034 -0.137628711980706 0.864603304874424 -0.501870729909031 0.024225929513628
-0.948651988164910 -0.384862685265911 -0.325520958174725 -0.614116846292097 0.734720299605880 -0.288178036025121
-0.967115691307684 -0.387990813394039 -0.206542280298525 -0.683353394051127 0.724834523899932 0.087424549192800
-0.911262380647276 -0.389867690270916 -0.391133596429348 0.509515715392979 -0.702853406558612 0.496377703625511
-0.917983600460290 -0.391118941522167 -0.094640241365632 0.912904756113465 -0.203100233400275 -0.354055364961708
-0.970616767896242 -0.392995818399044 -0.283088771941150 -0.705983391354800 0.692834681810276 -0.146858962314288
-0.852066064961504 -0.394872695275921 -0.440807537871296 0.315733439501329 -0.686831930507596 0.654655859529165
-0.962469705091524 -0.396123946527172 -0.158350172885104 -0.683203988153857 0.682833411654761 0.258787253354147
-0.946817382806226 -0.398000823404049 -0.357723008311568 -0.625919696570480 0.676840361334403 -0.387442458584283
-0.982522826893072 -0.401128951532177 -0.235143644675735 0.745118350883962 -0.666863789297054 -0.009556657383156
-0.897615210058243 -0.403005828409054 -0.420770763416671 -0.464405185086791 0.660884482052053 -0.589541792791057
-0.946301424670045 -0.404257079660305 -0.111037933460970 0.769576052909610 -0.535130460381822 -0.348407934983699
-0.974574323327979 -0.406133956537182 -0.315714723293260 -0.716550614726872 0.650929172003755 -0.250691901682220
-0.828290276592891 -0.408010833414059 -0.463703566693342 0.229308263164549 -0.665322563309212 0.710467175312215
-0.983120708433708 -0.409262084665310 -0.184222036744123 0.747263318811114 -0.640985628904608 -0.175313878221789
-0.938562472398881 -0.411138961542187 -0.389928102671690 -0.597734091637602 0.635024710879322 -0.489344022408371
-0.918947687492484 -0.412390212793438 -0.067418841406380 -0.743933166571301 0.427311934093040 0.513778118117988
-0.992514826648571 -0.414267089670315 -0.267102788839328 0.775018815062548 -0.625097848026172 0.092728187149820
-0.878049763518438 -0.416143966547192 -0.448120540527445 -0.400520225702555 0.619146207789188 -0.675456528714796
-0.971803683581327 -0.417395217798444 -0.133102776577218 0.710642651878162 -0.615180197110359 -0.341380061536747
-0.972336456977481 -0.419272094675320 -0.349505779621419 -0.707481645461601 0.609233672749400 -0.358195551791506
-0.799866808931801 -0.421148971552197 -0.482373870019656 -0.370720600693334 0.205432085896391 -0.905739418544777
-0.999146393211841 -0.422400222803449 -0.214323086331236 0.796646190586207 -0.599329022093448 -0.078482929997514
-0.924164693402078 -0.424277099680325 -0.420996270004998 -0.550115616936578 0.593389700383405 -0.587589543373077
-0.948646660673278 -0.425528350931577 -0.084650070622976 -0.635660662628037 0.589431501847228 0.498503787966957
-0.996715527310000 -0.427405227808453 -0.301321418562367 0.786569862851440 -0.583496117717695 0.202089414522990
-0.853204134249208 -0.429282104685330 -0.472221481275223 0.319980347508276 -0.577562902433758 0.751021751310025
-0.993591682404941 -0.430533355936582 -0.160118187956495 0.778740335250600 -0.573608561872647 -0.254040760509367
-0.963924644135804 -0.432410232813459 -0.383319287047304 0.678891184031711 -0.567678656056908 0.465669092491056
-0.914408018475179 -0.433661484064710 -0.041651433795680 0.860338553414755 -0.361004603430280 -0.359851705304216
-0.767710502011304 -0.434287109690335 -0.496144047798542 -0.037882089056516 -0.734144962590396 0.677935189551229
-1.009957229100877 -0.435538360941587 -0.247686386021519 0.829484083497170 -0.557799441333453 0.028564636755058
-0.904031114544874 -0.437415237818464 -0.449877063220036 0.484409529030209 -0.551874087334135 0.678809546127517
-0.975644393393916 -0.438666489069715 -0.107385072495825 0.720763116651144 -0.547924683809410 -0.424592829128906
-0.994907953220035 -0.440543365946592 -0.336703626262606 0.779106977643604 -0.542001742021024 0.315002268298538
-0.823813427982547 -0.442420242823469 -0.492239459076529 -0.225164655617300 0.536080097269839 -0.813584050465533
-1.010901845288930 -0.443671494074720 -0.191280795823381 0.832593921836698 -0.532133001080866 -0.153693950698320
-0.949512667397765 -0.445548370951597 -0.416065704473913 0.631361877880280 -0.526213279220683 0.569633008112506
-0.945788540502428 -0.446799622202848 -0.059013895728400 0.624383655805160 -0.522267368596608 -0.580845802311214
-1.015121109975383 -0.448676499079725 -0.283305473468788 0.844420786417340 -0.516349284544256 0.142607684985615
-0.878697149589994 -0.450553375956602 -0.475620223400919 0.402342446358614 -0.510432052383047 0.759986628670661
-0.999044367893452 -0.451804627207853 -0.135007851339213 0.794374244758245 -0.506487657433693 -0.335320461845230
-0.987038067896509 -0.453681504084730 -0.372167336098842 0.752479065885765 -0.500571636479594 0.428022536971861
-0.905179957999848 -0.454932755335981 -0.017726519394789 0.779617980133774 -0.128072746925314 -0.613019719541826
-0.790701937175007 -0.455558380961607 -0.507477824014748 0.271351085620548 -0.554371719852446 0.786791322118128
-1.023115234703818 -0.456809632212858 -0.225709767098327 0.870252250170506 -0.490712905072944 -0.043149343773020
-0.929424372997935 -0.458686509089735 -0.446722483171956 0.565939010059340 -0.484798307381919 0.666846037742356
-0.974570907492518 -0.459937760340986 -0.081835348583402 0.715513687778051 -0.480855457646278 -0.506772327040499
-1.014368658080898 -0.461814637217863 -0.320148602310286 0.840617713351826 -0.474941445905306 0.260369896417626
-0.848817839581415 -0.463691514094740 -0.497388892430706 -0.306002741900513 0.469027679160688 -0.828477735446468
-1.018073295980737 -0.464942765345991 -0.166792811133676 0.854054039183535 -0.465085265868955 -0.232996552819764
-0.973213985968544 -0.466819642222868 -0.406661080990660 -0.707042479139568 0.459171736811521 -0.537821763045775
-0.938357495869108 -0.468070893474119 -0.034632874148137 0.598904379533634 -0.455229412804190 -0.658847270536492
-0.754768770778088 -0.468696519099745 -0.517387081429344 0.011336445559869 -0.355466064318461 0.934620437461118
-1.029765968265323 -0.469947770350996 -0.262462332087932 0.890252471123366 -0.449315916394332 0.074603920362543
-0.904126096266191 -0.471824647227873 -0.474350541301307 -0.484108611743432 0.443402344937395 -0.754342901166218
-0.999863298368713 -0.473075898479124 -0.109568266926744 0.795475153773939 -0.439459888281429 -0.417246074061820
-1.007595490109167 -0.474952775356001 -0.357177456329541 0.817755803645143 -0.433546040015548 0.378567400592713
-0.891931271333215 -0.476204026607252 0.003986526402780 -0.656127889262240 0.359754342523765 0.663379986107187
-0.815153999254302 -0.476829652232878 -0.514472969049870 0.197802243561993 -0.427631937542130 0.882046029658206
-1.032093300286965 -0.478080903484129 -0.201919970003096 0.897794579704990 -0.423689029668338 -0.120218545952954
-0.953701111777360 -0.479957780361006 -0.439183236922416 -0.643644866957658 0.417774362159163 -0.641237762114462
-0.969054505308491 -0.481209031612257 -0.057024794373614 0.696407191113433 -0.413831020231107 -0.586311274716750
-0.716969291370530 -0.481834657237883 -0.521572767594129 -0.084563836047374 -0.386392430239567 0.918449697853135
-1.030547442842258 -0.483085908489134 -0.300553179242242 0.891634318339212 -0.407915617585857 0.196451244051337
-0.874214818590795 -0.484962785366011 -0.498111190513822 -0.387762438800420 0.401999695260236 -0.829479677910332
-1.020885246502145 -0.486214036617262 -0.141543783933176 0.861808561690054 -0.398055430081659 -0.314384919454203
-0.994861158433850 -0.488090913494139 -0.393368220535682 0.778767124412376 -0.402925878130972 0.480804016899677
-0.926895747447458 -0.489342164745390 -0.011964066981022 0.548028873953475 -0.398910658809817 -0.735210609010237
-0.778554613660184 -0.489967790371016 -0.526301167726918 0.767429364661114 -0.611811747227811 -0.191673045079093
-1.040612424204758 -0.491219041622267 -0.239493703193742 0.919500160684194 -0.392888431638251 -0.012575165469141
-0.928913519163671 -0.493095918499144 -0.468801939641901 0.571113537628807 -0.386866887837151 0.723991255632488
-0.996381336317396 -0.494347169750395 -0.084406756296113 0.772505475700308 -0.382852883966616 -0.506615198401593
-1.025315710309404 -0.496224046627272 -0.338976221547298 0.874444422797081 -0.376832385582199 0.305523001778113
-0.875256899193750 -0.497475297878524 0.023152130446339 0.572525270789870 -0.144653598103258 -0.807025495794753
-0.840402788118110 -0.498100923504149 -0.517282151345889 -0.290447881874262 0.370812460460509 -0.882121390219043
-1.036982298200100 -0.499352174755400 -0.176988517283037 0.905669854457973 -0.366799476233357 -0.212650555985657
-0.976384639741087 -0.501229051632277 -0.427733597135490 0.721690897303545 -0.360780420547303 0.590761996830294
-0.959521921381655 -0.502480302883529 -0.033468728502981 -0.652622154393444 0.356767981201795 0.668431695227011
-0.739936469417301 -0.503105928509154 -0.532450858002805 -0.345455204510782 -0.601868170386035 0.720010699332018
-1.043292658796533 -0.504357179760405 -0.278563990865763 0.929820701601150 -0.350749692126387 0.111391724769793
-0.899401868312003 -0.506234056637282 -0.494674472138384 -0.478561011200057 0.344731815791274 -0.807551443401861
-1.019549124799570 -0.507485307888534 -0.116155143183144 0.847589662690056 -0.340720110635491 -0.406818841635309
-1.014089622598884 -0.509362184765411 -0.376727640050863 0.840526267670153 -0.334702846839761 0.426015959412134
-0.911906428428092 -0.510613436016662 0.008582427786503 0.498564306981314 -0.330691519565921 -0.801296917934560
-0.803499210584319 -0.511239061642287 -0.531271724781695 -0.173800863416574 0.328685906967331 -0.928309665163902
-1.047638544694333 -0.512490312893539 -0.215044118743901 0.941323943639916 -0.324674778063497 -0.092171153945335
-0.952536376502803 -0.514367189770416 -0.459344723848869 0.647344187040939 -0.318658308425771 0.692388897929142
-0.988918911244815 -0.515618441021667 -0.060075288122475 0.747351867044524 -0.314647464832422 -0.585202665492557
-0.700261820427539 -0.516244066647292 -0.532655075619232 0.379991903055503 0.533202031817831 -0.755845054807926
-1.039954962153422 -0.517495317898544 -0.318149340725383 0.921066362227532 -0.308631381968490 0.237451945532480
-0.855716117579691 -0.518746569149795 0.039476103507767 0.820907612346013 -0.000312767328053 -0.571060937351670
-0.865838187676011 -0.519372194775421 -0.516065232176852 0.372799203483208 -0.302615492748694 0.877179923066386
-1.037886378589318 -0.520623446026672 -0.151535029529382 0.907599555476225 -0.298604993744208 -0.295123880108642
-0.997047556216574 -0.522500322903549 -0.412829324320741 0.788006235639753 -0.292589365826088 0.541698842160802
-0.946387371933825 -0.523751574154800 -0.011631887415645 0.609253678301982 -0.288579016141339 -0.738601453368731
-0.764389577453711 -0.524377199780426 -0.539630454758887 0.073821763408604 -0.051458368765671 0.995942961986891
-1.052486426928174 -0.525628451031677 -0.254788935029655 0.958642203259150 -0.282563575807319 0.034102078491268
-0.923826990875905 -0.527505327908554 -0.487352168291147 -0.557284326822973 0.276548214052931 -0.782914595841462
-1.014287345892774 -0.528756579159805 -0.091199105503624 0.829602086134971 -0.272538004352586 -0.487322700952883
-1.030580947019482 -0.530633456036682 -0.357260653602731 0.893086802088728 -0.266522719187509 0.362438414205538
-0.893878889366947 -0.531884707287933 0.026644272874862 0.439592152867929 -0.262512538511241 -0.858979572668247
-0.828997898542340 -0.532510332913559 -0.532361595164650 -0.256255437958409 0.260507448439281 -0.930843176815729
-1.050853204884777 -0.533761584164810 -0.189719514766323 0.950730372808945 -0.256497264632298 -0.174129008079396
-0.974520674988555 -0.535638461041687 -0.446351956895736 0.717859961651000 -0.250481967406138 0.649565900785112
-0.977804613111653 -0.536889712292938 -0.037077528124081 -0.710565480080898 0.246471745473546 0.659051118806899
-0.724013194914271 -0.537515337918564 -0.542059803516264 -0.198364101661906 -0.012039884175697 0.980054449691904
-1.051313393761434 -0.538766589169815 -0.295261182857343 0.956857328817495 -0.240456361086381 0.163109750479070
-0.890892889688497 -0.540643466046692 -0.511005316146004 -0.453480569154415 0.234440896402193 -0.859879549409988
-1.034937418250005 -0.541894717297943 -0.126139140538722 0.897102478289210 -0.230430531949206 -0.376973358996313
-1.015311066856029 -0.543771594174820 -0.394925356336714 0.846244620976978 -0.224414888562656 0.483226654127173
-0.930069465595170 -0.545022845426071 0.008069395444093 0.555853111907676 -0.220404386775716 -0.801529303439726
-0.789739511855297 -0.545648471051697 -0.543087137594689 -0.131634029366431 0.218399111904104 -0.966940696336780
-1.058052690800394 -0.546899722302948 -0.229811134272256 0.975632854065163 -0.214388510734959 -0.046670124635702
-0.946982812021683 -0.548776599179825 -0.476437076748259 0.631527405928887 -0.208372470191343 0.746829330722280
-1.005346290820879 -0.550027850431076 -0.067205514266178 0.799854635293842 -0.204361676156250 -0.564330459675502
-0.683339485501812 -0.550653476056702 -0.538417507688566 0.260966834513743 -0.023920649672557 0.965051352935749
-1.044065137742985 -0.551904727307953 -0.335483043237695 0.935709985587142 -0.198345321494999 0.291729251727619
-0.873302007297487 -0.553155978559204 0.041907938379122 0.398609972271932 -0.189686223218139 -0.897289934595618
-0.854479065218784 -0.553781604184830 -0.529669581022998 -0.338260105489533 0.192328755161583 -0.921189313318498
-1.050304510074599 -0.555032855436081 -0.164096620795021 0.947977930341869 -0.188317585006284 -0.256659951613312
-0.994439258528985 -0.556909732312958 -0.430211166576912 0.781398968790915 -0.182300628666335 0.596809963355468
-0.963386230716472 -0.558160983564209 -0.015871950690093 0.663315114796103 -0.178289183401806 -0.726791597065452
-0.748982474314503 -0.558786609189835 -0.547911808620798 0.001846531638217 -0.176283416697823 0.984337720154141
-1.059239072460302 -0.560037860441086 -0.270864837885783 0.981439765970251 -0.172271792263233 0.084252094114460
-0.915037156116293 -0.561914737317963 -0.502317528674223 0.530871398872557 -0.166254119544131 0.830984431619329
-1.028302993209104 -0.563165988569214 -0.101346254133855 0.874795548322131 -0.162242173855162 -0.456519688139004
-0.643343642469615 -0.563791614194840 -0.528719406958785 0.207433404618153 0.574428333119224 0.791835508649613
-1.030845255242168 -0.565042865446091 -0.374485081221033 0.895448691596106 -0.156223998605584 0.416852135629056
-0.911000109714496 -0.566294116697342 0.025266675900991 0.493834744274087 -0.152211704404533 -0.856130155052381
-0.815419470281099 -0.566919742322968 -0.542840959109548 -0.214246471537692 0.150205502520414 -0.965161518320244
-1.059961950028485 -0.568170993574219 -0.204195887059015 0.980789946757961 -0.146192986607461 -0.129146006540296
-0.968404110944283 -0.570047870451096 -0.462248891219918 -0.699878615734936 0.140173924774377 -0.700372182521762
-0.993003310211675 -0.571299121702347 -0.044664825545675 0.759294125185760 -0.136161019096602 -0.636343152974058
-0.707683679671373 -0.571924747327973 -0.546658745926021 -0.183574029659352 0.045845584013853 0.981936229121350
-1.054322438320356 -0.573175998579224 -0.311911996306903 0.967782107325357 -0.130141354139043 0.215548186454324
-0.850670969892137 -0.574427249830476 0.054109856042346 0.449149221290813 0.085477595790544 -0.889358509056795
-0.879400018058868 -0.575052875456101 -0.523335772954462 -0.418127079192964 0.124121310011143 -0.899868682668021
-1.046084555454332 -0.576304126707352 -0.138727343970382 0.933436509241224 -0.120107730384200 -0.338039075134095
-1.011911287667026 -0.578181003584229 -0.411330403886105 0.836818673663921 -0.114087026505024 0.535461163662312
-0.946036498904082 -0.579432254835481 0.003127175669328 0.606834052160071 -0.110072995744870 -0.787169847457801
-0.774615407798512 -0.580057880461106 -0.550157541323884 0.084291527821902 -0.108065910593463 0.990563827981344
-1.063630560531432 -0.581309131712357 -0.245506944499026 0.994568454956564 -0.104051598585073 0.002617868828517
-0.937776727648992 -0.583186008589234 -0.490253700667978 -0.603444724420580 0.098029769924060 -0.791356195892599
-1.018190683583689 -0.584437259840486 -0.077669909601608 0.841402655437034 -0.094014972164664 -0.532167977646518
-0.666813189432434 -0.585062885466111 -0.539307533690216 -0.260992514157664 -0.092007498452810 0.960946162790672
-1.043369815335333 -0.586314136717362 -0.351984876212392 0.934794258195033 -0.087992399336412 0.344117759647216
-0.889628893667746 -0.587565387968614 0.039639744392173 0.424661654270266 -0.083977095295649 -0.901449015118518
-0.840882029954939 -0.588191013594239 -0.538959598298357 -0.295843130104370 0.081969365440030 -0.951713121428620
-1.058234039302509 -0.589442264845491 -0.178493693164333 0.974245677982062 -0.077953748107868 -0.211585850399327
-0.987667201456570 -0.591319141722367 -0.445137984548485 0.761039629836817 -0.071929922295449 0.644705179207063
-0.977570276525000 -0.592570392973619 -0.024028981738299 -0.708963908085722 0.067913767464204 0.701967162494541
-0.733012424325057 -0.593196018599244 -0.551407684057763 -0.048597565095863 -0.065905607643856 0.996641724767656
-1.061184740611986 -0.594447269850496 -0.287069205620904 0.988833013063026 -0.061889121358380 0.135569203487319
-0.826490324016342 -0.595698521101747 0.063037531764549 0.434042369179292 0.347789111077082 -0.831053521726152
-0.903245539466312 -0.596324146727372 -0.513544368083696 -0.494243931371974 0.055863969893036 -0.867526456754931
-1.038331996460330 -0.597575397978624 -0.114140343548017 0.907607894943442 -0.051846916733005 -0.416605096298179
-0.627329723593106 -0.598201023604249 -0.525993798122056 -0.096927508778045 0.089545476209296 0.991255096194987
-1.026602584805320 -0.599452274855501 -0.390141016987012 0.883107699223518 -0.045820901716839 0.466927442476880
-0.926155751115591 -0.600703526106752 0.019549922371599 0.542435899713860 -0.041803264176242 -0.839056483084320
-0.800367196480525 -0.601329151732377 -0.548794853553888 -0.166815996183519 0.039794356129539 -0.985184669306996
-1.064438549804269 -0.602580402983629 -0.219729523528503 0.996147409698141 -0.035776359810693 -0.080064912604580
-0.958652457894944 -0.604457279860506 -0.475104606528157 -0.669772692623851 0.029748909817985 -0.741970041565048
-1.004850165069930 -0.605708531111757 -0.055592271376954 0.797770610672774 -0.025730302346530 -0.602411822832144
-0.691576233515204 -0.606334156737382 -0.546534628524836 -0.181334789361217 -0.023720905403387 0.983135297308650
-1.052654923367625 -0.607585407988634 -0.327915882640361 0.963602743480291 -0.019701923515118 0.266611303149473
-0.866424815913220 -0.608836659239885 0.050917342122215 0.349855850729444 -0.015682688864266 -0.936672267647742
-0.865598401079457 -0.609462284865511 -0.531560017621085 -0.374752651087296 0.013672975975077 -0.927024001971378
-1.052939648154800 -0.610713536116762 -0.153241051942800 0.956281564292061 -0.009653357529790 -0.292288183961531
-1.004390268987694 -0.612590412993639 -0.425486946370451 0.813833269997010 -0.003623443630467 0.581087152931666
-0.959395049668279 -0.613841664244890 -0.005711172404292 0.672184158532358 0.005633480163983 -0.740362560452234
-0.758790270503079 -0.614467289870516 -0.552594890765864 0.004460962835426 0.007643451363481 0.999960837964085
-1.064536625892028 -0.615718541121767 -0.261481744681476 0.996483554010514 0.011663198965635 0.082972865302241
-0.801274845707130 -0.616969792373018 0.068530488394939 0.434981292784895 0.356115518422215 -0.827026609285372
-0.925527909679798 -0.617595417998644 -0.500524915900095 -0.540407924769635 -0.017692337941061 -0.841217127752613
-1.027233224613804 -0.618846669249895 -0.090841057293994 0.885169885021880 0.021711445898060 -0.464761108277540
-0.651268218988411 -0.619472294875521 -0.535637448471220 -0.338737743697659 0.023720905403383 0.940581766589946
-1.038226337851383 -0.620723546126772 -0.367098471478694 0.907273895095319 0.027739637044909 0.419624346070606
-0.904172716502042 -0.621974797378023 0.033071342869753 0.497272916201707 0.031758120987228 -0.867012726875223
-0.825702372874431 -0.622600423003649 -0.543873988436717 -0.218973277706423 -0.033767270876232 -0.975146386481576
-1.061666799384704 -0.623851674254900 -0.194070115843167 0.990413159424823 0.037785388118401 -0.132868499212122
-0.977240819561133 -0.625728551131777 -0.457200689242922 0.707882772601197 0.043812112593036 0.704969842649016
-0.988573912477744 -0.626979802383028 -0.035563654107423 0.764012222895163 0.047829631886645 -0.643426491201894
-0.717112966594820 -0.627605428008654 -0.550266493670902 -0.128714146040156 0.049838303444067 0.990428600212539
-1.058522026080142 -0.628856679259905 -0.302784173924920 0.975181367251775 0.053855472099681 0.214757745121985
-0.841876455078947 -0.630107930511156 0.058877926224904 0.299116069586396 0.057872410464229 -0.952460162433183
-0.889058839047201 -0.630733556136782 -0.520809119354063 -0.422772513360436 -0.059880794167207 -0.904255324804231
-1.044200968910572 -0.631984807388033 -0.128960063633321 0.937517044291022 0.063897392396710 -0.342021804727019
-0.613021076162517 -0.632610433013659 -0.518968295981869 -0.201241708253047 0.260890691661212 0.944159849741520
-1.018234095561805 -0.633861684264910 -0.403710767484625 0.841517675844035 0.069921872224812 0.535685479574191
-0.938861669489915 -0.635112935516161 0.009914885180864 0.607020024653769 0.073937918048767 -0.791239454238698
-0.784481645719942 -0.635738561141787 -0.550204491647498 0.086869188736999 0.075945859860148 0.993320678541567
-1.064316019821242 -0.636989812393038 -0.235681709659952 0.996797902738966 0.079961583173147 0.000293788431311
-0.775549193047987 -0.638241063644289 0.070480931999923 -0.200152421047778 -0.481507551579313 0.853281598372312
-0.945787623930906 -0.638866689269915 -0.484552553070117 -0.605966719630009 -0.085984773130089 -0.790829282140345
-1.013022623292802 -0.640117940521166 -0.069310982747102 0.840472174387007 0.089999974310891 -0.534328109596731
-0.676299554125375 -0.640743566146792 -0.541872150809836 -0.258750564428446 0.092007498452815 0.961552268801034
-1.046543817718128 -0.641994817398043 -0.342682048543907 0.934897615825791 0.096022395852121 0.341681353629474
-0.880544239014087 -0.643246068649294 0.043412211285650 0.421926695143102 0.100037094792667 -0.901094025943498
-0.850095521268441 -0.643871694274920 -0.535497920055842 -0.297510619544613 -0.102044370873401 -0.949249375891937
-1.055372509891251 -0.645122945526171 -0.169061064701030 0.971211402350987 0.106058778349894 -0.213307166964350
-0.993154710137725 -0.646999822403048 -0.436911864160991 0.759713537657980 0.112080034236690 0.640525882868678
-0.969697039388697 -0.648251073654299 -0.018001695563588 -0.704153487257044 -0.116093972989580 0.700492723601923
-0.742894111046599 -0.648876699279925 -0.550421814380461 -0.046025454449118 0.118100874133650 0.991934393531961
-1.060844375727211 -0.650127950531176 -0.277110079863086 0.983633572038888 0.122114542191906 0.132487865645417
-0.816491314439341 -0.651379201782427 0.063350248158219 0.217847771738277 0.126128034300114 -0.967798567529554
-0.910773524062352 -0.652004827408053 -0.506923714744932 -0.492984467534804 -0.128134715520800 -0.860550875572054
-1.032191715434075 -0.653256078659304 -0.106157538025329 0.899869300908226 0.132147950624645 -0.415658706667678
-0.637292386557677 -0.653881704284930 -0.527628619925720 -0.382649239837274 0.134154505451269 0.914101814853839
-1.028902766649580 -0.655132955536181 -0.380256271385223 0.876669311956831 0.138167492042393 0.460826064384223
-0.916389825157750 -0.656384206787432 0.022515693073432 0.535380698587503 0.142180317782497 -0.832557664558573
-0.809551756534402 -0.657009832413058 -0.544274350377576 -0.167572622311974 -0.144186671560776 -0.975258745152133
-1.060514430578885 -0.658261083664309 -0.210205322147251 0.985581965739579 0.148199263425081 -0.081640474822056
-0.749847019124852 -0.659512334915561 0.068834047426692 0.551258244471418 0.377248952441987 -0.744175769414533
-0.963594244042898 -0.660137960541186 -0.465947610417537 -0.663862158563895 -0.154217869592927 -0.731781308264364
-0.995982227506326 -0.661389211792437 -0.050006797817793 0.786498724286957 0.158230091966784 -0.596978219612050
-0.701907110950782 -0.662014837418063 -0.544551907470052 -0.176617352057525 0.160236150205493 0.971149158018227
-1.051364842898256 -0.663266088669314 -0.317394018284619 0.951359829613658 0.164248163453773 0.260647300771627
-0.855754480510166 -0.664517339920566 0.050339540226114 0.342564672548414 0.168260042673551 -0.924304064234975
-0.873032213821522 -0.665142965546191 -0.523822186028433 -0.371643494972356 -0.170265933394259 -0.912628415386084
-1.045666216613707 -0.666394216797442 -0.145228570518268 0.940947296963865 0.174277619842128 -0.290250746008617
-0.600987925077769 -0.667019842423068 -0.507901818822999 -0.488060641698286 0.170704194847997 0.855953788405866
-1.006044112427750 -0.668271093674319 -0.414646836959279 0.801991083429984 0.180294920530708 0.569476991396164
-0.948596661638131 -0.669522344925571 -0.003290655762420 0.636908564409742 0.184306308395264 -0.748584440973248
-0.768381861714791 -0.670147970551196 -0.546972234475399 0.036024886432786 0.186311960309546 0.981829955238237
-1.059547164593991 -0.671399221802447 -0.251427255737444 0.980453345818377 0.190323183087694 0.049883089849355
-0.790794906778846 -0.672650473053699 0.064213545356013 0.135271988874899 0.194334301840896 -0.971563517302827
-0.930273356604081 -0.673276098679324 -0.490170038765685 -0.556321817656687 -0.196339823744075 -0.807438362236590
-1.017136691299563 -0.674527349930576 -0.085324176927378 0.852262729479248 0.200350795723114 -0.483226446496565
-0.662472922585275 -0.675152975556201 -0.532776279861517 -0.301875695631918 0.202356247063327 0.931623858464987
-1.036144018067689 -0.676404226807452 -0.355601271010742 0.900906135750730 0.206367083648288 0.381812468828859
-0.892434042604396 -0.677655478058704 0.031798364531414 0.458683988781130 0.210377836443399 -0.863336646024728
-0.833467443537171 -0.678281103684329 -0.534895797650623 -0.244863164006975 -0.212383183068062 -0.946010261288096
-1.053176729590763 -0.679532354935581 -0.185592070779291 0.962921713996871 0.216393820119803 -0.161107067899849
-0.568213802743594 -0.680157980561206 -0.483198165958769 0.008321625290534 0.577787970286810 0.816144479822275
-0.978546900987796 -0.681409231812457 -0.445074905072389 0.712779198850013 0.222409645428553 0.665191523778738
-0.976441053127312 -0.682660483063709 -0.033359829790535 0.724249811113945 0.226420116884571 -0.651303417595357
-0.727556650428326 -0.683286108689334 -0.543581094755783 -0.094027325709047 0.228425331107023 0.969010180611459
-1.052547744534909 -0.684537359940586 -0.291758804572883 0.956152451311807 0.232435720136879 0.178174425367039
-0.830314098181294 -0.685788611191837 0.053666584281350 0.260789560632631 0.236446061484093 -0.935992556099513
-0.894009602444410 -0.686414236817462 -0.509054325856462 -0.439750482001261 -0.238451216128057 -0.865887135316554
-1.032711261562648 -0.687665488068714 -0.123092086008797 0.900081344637804 0.242461497118233 -0.362030379181345
-0.625504537466270 -0.688291113694339 -0.515428212016325 0.418909128342995 -0.244466624989624 -0.874500549718006
-1.015596191495689 -0.689542364945591 -0.390852325449491 0.833670884917717 0.248476859349990 0.493205946849870
-0.925691133922060 -0.690793616196842 0.008218703824070 0.563564884945279 0.252487070436272 -0.786539827166510
-0.793030513671417 -0.691419241822468 -0.539941914438309 0.115702150368986 0.254492169242017 0.960128506083683
-1.054607105509098 -0.692670493073719 -0.226282050357870 0.965502569153233 0.258502357423423 -0.031326030151297
-0.765330118841153 -0.693921744324970 0.061397140624272 -0.053101949417390 -0.262512538511230 0.963466320165092
-0.947110130543433 -0.694547369950596 -0.470863021883441 -0.611325805429808 -0.264517628478372 -0.745862711120334
-0.999311068176543 -0.695798621201847 -0.066934388678283 0.795512057699272 0.268527811493265 -0.543188163079523
-0.688038954677920 -0.696424246827473 -0.534247403101677 -0.219517982357958 0.270532906258115 0.937349348990562
-1.039748870360248 -0.697675498078724 -0.330253918571463 0.913503656014905 0.274543106655290 0.300228501370980
-0.867483025615890 -0.698926749329975 0.037510263254598 0.378445713973234 0.278553327440536 -0.882715631076676
-0.855697397016119 -0.699552374955601 -0.522212907185169 -0.317040914604547 -0.280558447721410 -0.905964687986714
-1.042400418233523 -0.700803626206852 -0.162384485295256 0.929056815684372 0.284568712618569 -0.236376989212202
-0.591852289368017 -0.701429251832478 -0.492985391331533 0.525039667483594 -0.286573859084037 -0.801379292756183
-0.990273933394903 -0.702680503083729 -0.422343033150934 0.751489802358990 0.290584184736925 0.592303898797925
-0.954774363768319 -0.703931754334980 -0.019776420143999 -0.654858334663641 -0.294594560373194 0.695970262669381
-0.752696582327333 -0.704557379960606 -0.538913674657137 -0.012717436513295 0.296599769351684 0.954917192027172
-1.049998551245896 -0.705808631211857 -0.266322693108867 0.948905769187272 0.300610234542750 0.095975664057426
-0.804759925062361 -0.707059882463108 0.053251994263665 0.178277093242105 0.304620769372966 -0.935640670819609
-0.912536046378214 -0.707685508088734 -0.491453033917989 -0.500244570715715 -0.306626065436123 -0.809775169701203
-1.016722895248618 -0.708936759339985 -0.103164686908204 0.849221884270895 0.310636720010195 -0.426997680856346
-0.650759253647923 -0.709562384965611 -0.519272169275502 0.337497669289480 -0.312642080611426 -0.887890901324666
-1.021534341427841 -0.710813636216862 -0.366012615775801 0.853812756881623 0.316652873743593 0.413200597453740
-0.901439547841712 -0.712064887468113 0.016208128852195 0.485523677960131 0.320663769970137 -0.813290541423300
-0.816286125798004 -0.712690513093739 -0.529406438984481 -0.191250402515431 -0.322669259478542 -0.926988582737272
-1.046051262008085 -0.713941764344990 -0.202233817059696 0.938784971790142 0.326680326848307 -0.109374315043644
-0.562281864248272 -0.714567389970616 -0.466059163807428 -0.611126491107312 0.324365312714144 0.722019082694301
-0.740657487755106 -0.715193015596241 0.054879189420958 -0.157912258923132 -0.449817143978687 0.879049631968896
-0.960855436220577 -0.715818641221867 -0.449365554197723 -0.656594540882150 -0.332697165800732 -0.676901916640748
-0.979039550810245 -0.717069892473118 -0.051447412560153 0.730569018459072 0.336708563862491 -0.594050715250312
-0.713440343424000 -0.717695518098744 -0.531922635310088 -0.137287448997945 0.338714318060090 0.930819406269941
-1.039550103437431 -0.718946769349995 -0.304752810853848 0.913853346858431 0.342725942803557 0.217740645183799
-0.842059677784043 -0.720198020601246 0.039437383040346 0.296274420208230 0.346737730837820 -0.889940680013964
-0.875710995482174 -0.720823646226872 -0.506421298566420 -0.382409174918421 -0.348743689194814 -0.855652419025976
-1.028334289447355 -0.722074897478123 -0.141129289455975 0.884366534936674 0.352755740909428 -0.305711005918238
-0.616591975078263 -0.722700523103749 -0.499104954484254 0.445208488620366 -0.354761836833637 -0.822151713971815
-0.998430991410469 -0.723951774355000 -0.398204049584635 0.778840390275090 0.358774175329907 0.514479093445488
-0.931403203759118 -0.725203025606251 -0.009639903342473 -0.579579567726781 -0.362786718196937 0.729707696117791
-0.776756925491914 -0.725828651231877 -0.530551381813089 0.065526869831402 0.364793069635432 0.928779976999966
-1.043669004985874 -0.727079902483128 -0.241654798520372 0.929371710603069 0.368805939375411 0.015824114892994
-0.537454192374999 -0.727705528108754 -0.435380687491632 0.355928484814619 -0.698018680656661 -0.621357252433657
-0.779655844374989 -0.728331153734379 0.048997658188303 0.096774095858542 0.372819040902131 -0.922843831377540
-0.928128943328447 -0.728956779360005 -0.471327150207137 -0.551562741762630 -0.374825682128358 -0.745173972919278
-0.997967053608162 -0.730208030611256 -0.085955277064528 0.789109609131329 0.378839152721693 -0.483515171573458
-0.676211653809941 -0.730833656236882 -0.519237801066017 0.254990767793429 -0.380845985020217 -0.888783462961648
-1.023615499745946 -0.732084907488133 -0.340650024279273 0.861562894036799 0.384859851065423 0.331047239313117
-0.876342007973915 -0.733336158739385 0.020389018406581 -0.404291634618681 -0.388873995818408 0.827843759143946
-0.837584322718746 -0.733961784365010 -0.515490864627058 -0.260886356606579 -0.390881176562233 -0.882694859363002
-1.033954828176350 -0.735213035616261 -0.179857062727449 0.900425837478598 0.394895762632913 -0.182457249391564
-0.586333022278067 -0.735838661241887 -0.474334497671976 0.540154805701394 -0.396903171149802 -0.742092082297689
-0.717357273757459 -0.736464286867513 0.044684182821561 -0.050655013303762 -0.565679106256910 0.823068173586842
-0.971097364023284 -0.737089912493138 -0.426088050914434 0.690765967379994 0.400918227251430 0.601753232951142
-0.956695654507370 -0.738341163744389 -0.039310731791949 0.653098541043123 0.394110891987767 -0.646636606220179
-0.738098709741229 -0.738966789370015 -0.525724072044204 -0.044718159001028 0.396083196171954 0.917125066697976
-1.035418899257781 -0.740218040621266 -0.279668648648623 0.908013278395079 0.400027595758063 0.124458060768455
-0.816722556749762 -0.741469291872518 0.037400703804778 -0.202944306390471 -0.403971730665503 0.891975587853619
-0.892974682755703 -0.742094917498143 -0.487766406829235 -0.452460198409387 -0.405943704069376 -0.794033675596805
-1.011176318160304 -0.743346168749395 -0.122381035921998 0.828932645776918 0.409887473347584 -0.380608628328383
-0.641911699200133 -0.743971794375020 -0.501281118256549 -0.353768722378580 0.411859273505900 0.839773558701284
-1.002696583026469 -0.745223045626271 -0.373154087043359 0.804063195438184 0.415802715712650 0.424959385527279
-0.906794663450032 -0.746474296877523 -0.003315300063639 0.492610214404881 0.419745961798825 -0.762330967636470
-0.799145857691605 -0.747099922503148 -0.518540378551805 0.151578901613880 0.421717516879360 0.893967657436575
-1.033552782025259 -0.748351173754399 -0.218350369153910 0.901954922948721 0.425660502453359 -0.072735504533348
-0.560679056198236 -0.748976799380025 -0.445676246954503 0.615293094767896 -0.427631937542141 -0.662227554187304
-0.755595902483190 -0.749602425005651 0.040844483299858 -0.006342142014369 -0.429603337262832 0.902995431797585
-0.940309470849624 -0.750228050631276 -0.449034642759477 -0.604673420373081 -0.431574703964142 -0.669412675106009
-0.976758842771297 -0.751479301882528 -0.071973968806451 0.718174354824095 0.435517347807543 -0.542724825147771
-0.701284050309896 -0.752104927508153 -0.515161250177737 -0.162759632064768 0.437488629751813 0.884371528831646
-1.021624628761723 -0.753356178759404 -0.315327134636419 0.864908437925153 0.441431125851099 0.238897373647562
-0.850941471785620 -0.754607430010656 0.020496495214609 -0.312874512067489 -0.445373548038964 0.838899244489894
-0.856344815384852 -0.755233055636281 -0.498366532759571 0.335616357654010 0.447344737676771 0.829002018180871
-1.018437336102968 -0.756484306887533 -0.159746856276037 0.853260023342805 0.451287086757963 -0.261318384141922
-0.611370292610516 -0.757109932513158 -0.478619628992104 0.452122362654611 -0.453258251357029 -0.768207216032485
-0.696034738615093 -0.757735558138784 0.030878532153734 -0.023437588298577 -0.616076850899674 0.787337280484219
-0.977433488716580 -0.758361183764410 -0.401488776435139 0.724124813267613 0.457200573735669 0.516343771324803
-0.932701417673806 -0.759612435015661 -0.030967381252502 -0.576313985452102 -0.461142904715931 0.674692086512409
-0.761402609124392 -0.760238060641286 -0.515609566972536 0.030780484158579 0.463114080157340 0.885764026451167
-1.027258508217683 -0.761489311892538 -0.255608733270207 0.882997761989969 0.467056464608971 0.046617713239436
-0.540209028715450 -0.762114937518163 -0.413957202291160 -0.680247649945220 0.478566371555294 0.555191284838303
-0.792069969251975 -0.762740563143789 0.031249222451692 -0.123293829309925 -0.470998912333121 0.873475046143341
-0.906944084525207 -0.763366188769414 -0.466541067159515 0.498534603829117 0.472970166961005 0.726472621610632
-0.991170449798294 -0.764617440020666 -0.106710059720948 0.765397603301406 0.476912752053582 -0.432111948213819
-0.667245561341607 -0.765243065646291 -0.499257131155422 -0.272135771543145 0.478884088320074 0.834632944353666
-1.002763309932882 -0.766494316897543 -0.347735795832275 0.805676792307588 0.482826863001287 0.343166325127178
-0.881463614731005 -0.767745568148794 -0.001158615903689 -0.411213033035442 -0.486769793813386 0.770687361575799
-0.819242005220708 -0.768371193774420 -0.502965460578138 0.217128326771802 0.488741325349472 0.844977636750772
-1.019678793892929 -0.769622445025671 -0.197038246406337 0.858524904134476 0.492684536096010 -0.142115927582896
-0.585324898973936 -0.770248070651296 -0.451954608832108 0.536338892241453 -0.494656221560641 -0.683853650381835
-0.733211423695048 -0.770873696276922 0.028764782741434 0.066398951560731 -0.496627964639043 0.865420039038914
-0.948591995624519 -0.771499321902548 -0.424981783684520 -0.632737117710790 -0.498599768534058 -0.592487983581799
-0.953460721727854 -0.772750573153799 -0.061742970566354 -0.643800131494960 -0.502543571741041 0.577036696570357
-0.725355358626512 -0.773376198779425 -0.506901256068924 -0.084793466317902 0.504515577615802 0.859228782113814
-1.015364390972307 -0.774627450030676 -0.290652279287488 0.846259713261819 0.508459814557391 0.159100957540448
-0.525368423408532 -0.775253075656301 -0.380098605863643 0.687488339579840 -0.557467927078922 -0.465391548290346
-0.825828477356922 -0.775878701281927 0.016278220679919 -0.231786273660799 -0.512404374340629 0.826871743681587
-0.871960149789003 -0.776504326907553 -0.478245914649786 0.387126599770549 0.514376783894581 0.765212075140193
-0.999656290909698 -0.777755578158804 -0.142529996603231 0.793895521073497 0.518321879824461 -0.317918748290625
-0.636853477415771 -0.778381203784429 -0.478557237431189 0.370094792352863 -0.520294573306089 -0.769625494420193
-0.677331114389544 -0.779006829410055 0.013562958860623 -0.066474181138141 -0.679456828757248 0.730698023192315
-0.979457387514261 -0.779632455035681 -0.376075669010059 0.732277689418988 0.524240269340647 0.434674045211850
-0.907528048312113 -0.780883706286932 -0.026870060761180 -0.495551233299323 -0.528186401957518 0.689527446852329
-0.782697337773694 -0.781509331912558 -0.501562565508291 0.100252566196506 0.530159641311060 0.841950222813643
-1.014992794113498 -0.782760583163809 -0.233226572002228 0.845009550902648 0.534106485106801 -0.026251122836262
-0.564401983655505 -0.783386208789435 -0.422108165089783 0.604432353722518 -0.536080097269828 -0.589304385767346
-0.768748847085650 -0.784011834415060 0.020847218681376 -0.047514793044822 -0.538053841492598 0.841570203902779
-0.917048577161222 -0.784637460040686 -0.443082043712355 0.532664186611505 0.540027721740225 0.651643249066209
-0.968601582277210 -0.785888711291937 -0.094718115056910 0.693571887061883 0.543975906387222 -0.472279843681286
-0.691975942769664 -0.786514336917563 -0.492780018530697 -0.192068558083265 0.545950218935841 0.815504768496005
-0.627169494700006 -0.787139962543188 -0.013175676180627 0.100083371394237 0.978048985967587 -0.182766243650568
-0.998321492816663 -0.787765588168814 -0.322544150009003 0.793157149801096 0.549899305196795 0.261748906136175
-0.516456619173203 -0.788391213794439 -0.345097179868367 -0.563042094658273 0.683956800191970 0.463882199608894
-0.855977194491258 -0.789016839420065 -0.003534313392661 -0.328987352651131 -0.553849034505584 0.764865065729135
-0.836379059119749 -0.789642465045691 -0.483939999278117 0.273676184887506 0.555824151044333 0.784959144759310
-1.002099355696704 -0.790893716296942 -0.178395837062337 0.803286971084137 0.559774909806841 -0.203425889299314
