ply
format ascii 1.0
element vertex 429
property double x
property double y
property double z
property double nx
property double ny
property double nz
end_header
0.396323747186782 -0.819590979548978 -0.413760937810441 0.143725945242016 -0.865462251995430 -0.479914516383165
0.297266906162496 -0.820891044552228 -0.487616939281779 0.299480848138459 -0.821360300141277 -0.485467278969552
0.110157404476669 -0.820991049552478 0.560213390409123 0.107075576624034 -0.821459981601681 0.560123485954298
-0.459529556874343 -0.821091054552728 -0.338588343704208 0.461473842993067 0.820977756022460 0.336210375136662
0.185023634937339 -0.822191109555478 -0.538301062494314 -0.187614494798080 0.822656191060758 0.536691338341757
0.227128808153797 -0.822291114555728 0.521775648559163 0.224133673508965 -0.822755877856178 0.522337880928128
0.357725873272979 -0.822991149557478 -0.441268362044171 0.359591088040353 -0.823453697015258 -0.438882966488628
0.253786931532176 -0.824291214560728 -0.506098989310868 0.256089324556564 -0.824749701063671 -0.504188643707439
0.154690571209009 -0.824391219560978 0.544472170353815 0.151705225890446 -0.824849396619413 0.544618212451732
-0.481725661523798 -0.824491224561228 -0.296908416268360 0.479624680511890 0.824949092596869 0.299030367132622
0.138731749883800 -0.825591279563978 -0.546948389413564 0.141355323608856 -0.826045776297858 -0.545588716844387
0.317277558167594 -0.826391319565978 -0.465201395128186 0.319257369744672 -0.826843396833493 -0.463038582600377
0.080267499756297 -0.826491324566228 0.557197647966711 0.077349585636191 -0.826943101330224 0.556939986681026
0.209276241970188 -0.827691384569228 -0.520701859471146 -0.211640078431503 0.828139588986256 0.519031115016414
0.197363367277254 -0.827791389569478 0.525175319880529 0.194494591952739 -0.828239299111590 0.525539263146227
-0.500148835424462 -0.827891394569728 -0.253864099905727 -0.408936221211679 -0.868118119721203 -0.281322052446722
0.374408353545090 -0.828491424571228 -0.416437683462474 -0.376039134818164 0.828937282219142 0.414074330564393
0.275307091915562 -0.829791489574479 -0.485440098231249 0.277374834743290 -0.830233593743133 -0.483503237705286
0.124873905951867 -0.829891494574729 0.543770737392927 0.122043849278013 -0.830333313114785 0.543738804928644
-0.459267481372858 -0.829991499574979 -0.316524076788338 0.457160969385814 0.830433032932246 0.318409839491770
0.164080586114476 -0.831091554577729 -0.531379703385351 -0.166479205344827 0.831529980432530 0.529945814050485
0.237889957739177 -0.831191559577979 0.502522595803591 -0.232996243388895 0.827242706461794 -0.511255567375484
-0.514723312764263 -0.831291564578229 -0.209795724356010 0.264504209384586 0.931829044928327 0.248459562596809
0.335683814804232 -0.831891594579729 -0.441896765484965 -0.337426429646193 0.832327794647554 0.439742932670170
0.050960405058794 -0.831991599579979 0.552442771103570 -0.059639669638353 0.836976586807401 -0.543979138333137
0.232150175312417 -0.833191659582979 -0.501894365881682 0.234279161895633 -0.833624304873577 -0.500183758858207
0.167798714672250 -0.833291664583229 0.526752876679807 0.165076376771742 -0.833724039639745 0.526928852463687
-0.479415224417383 -0.833391669583479 -0.274989759201486 0.477528416293211 0.833823774866201 0.276955816151921
0.389380763800890 -0.833991699584979 -0.390948162555080 0.377293949246902 -0.838984107295449 -0.392115982290105
0.118546478524891 -0.834491724586229 -0.538117360829818 0.285183686117051 -0.803355752081729 -0.522771270031063
-0.525403823784400 -0.834691734586729 -0.165047054397611 -0.465339214761075 -0.864604418105266 -0.189522071005991
0.295296495074060 -0.835291764588229 -0.463775428422052 -0.297124559106145 0.835718832399639 0.461834417890831
0.095506950682371 -0.835391769588479 0.541293833028961 0.092851013023597 -0.835818576947879 0.541097029939469
-0.435941978309575 -0.835491774588729 -0.334526659837612 0.429514324515343 0.836567578870374 0.340106058486306
0.188147244521941 -0.836591829591480 -0.514504348902496 0.190311084546418 -0.837015548415105 -0.513017214925706
0.208750549829231 -0.836691834591730 0.506329914061494 0.206153489103063 -0.837115299126866 0.506693906513953
-0.495808724037084 -0.836791839591980 -0.232278122863495 -0.494134905967987 -0.837974861928889 -0.231578983241719
0.352436568365287 -0.837391869593480 -0.417807757249236 -0.353939929987150 0.837813567516796 0.415686122026549
0.253575042303778 -0.838691934596730 -0.481970472916165 0.255462093681479 -0.839110414377462 -0.480242471232147
0.138548833378280 -0.838791939596980 0.526528539432246 0.135993351934210 -0.839210175229921 0.526528337338328
-0.457696933795134 -0.838891944597230 -0.294573967085367 0.455814359280151 0.839309936571407 0.296297317312403
0.143640775890459 -0.839991999599980 -0.523240640728159 -0.145813699221268 0.840407343730461 0.521971131120601
-0.508388879884327 -0.840192009600480 -0.188727671032805 -0.507437864169400 -0.838924106261115 -0.196756595673912
0.313697742967172 -0.840792039601980 -0.441205702818135 -0.315281995453494 0.841205495614567 0.439284164853130
0.066700071158990 -0.840892044602230 0.537076968256941 0.064237274264843 -0.841305266841428 0.536729932628968
0.210854065922527 -0.842092104605230 -0.496408551744903 0.212773889868308 -0.842502560728332 -0.494890600998353
0.179789855689385 -0.842192109605480 0.508318854961589 0.177352139231591 -0.842602338499021 0.508495346946224
-0.475797983707225 -0.842292114605730 -0.253298780836282 0.474121410222058 0.842702116777583 0.255072598974543
0.367492501829733 -0.842892144607230 -0.393042101635877 0.368755602583616 -0.843300797131914 -0.390977072371097
0.273485447907018 -0.844192209610481 -0.461026271503124 -0.275124233889035 0.844598001211051 0.459304770579698
0.109726858847981 -0.844292214610731 0.524529000909448 0.107359063269871 -0.844697789755740 0.524365974788204
-0.435095429906397 -0.844392219610981 -0.312559988378246 0.436430722108534 0.844428954762125 0.310592925159553
0.167471463111278 -0.845492274613731 -0.507046469874180 0.167492797371788 -0.844495279493570 -0.508698226595739
0.218951765725513 -0.845592279613981 0.486861192685257 -0.214416786237152 0.841694575479298 -0.495555933662847
-0.490172700304969 -0.845692284614231 -0.211033844725670 -0.491822294355798 -0.844692375726195 -0.211200428893113
0.330458936086991 -0.846292314615731 -0.417835146657869 0.331055418241942 -0.845283688811996 -0.419401711347291
0.038561945199293 -0.846392319615981 0.531161950517473 0.051255432510193 -0.848737928285678 0.526323863916056
0.232127998922071 -0.847592379618981 -0.477183141077164 0.232381907365297 -0.846564993236017 -0.478880320494139
0.151123103871379 -0.847692384619231 0.508507058490678 0.152083910368983 -0.846663562292517 0.509932639172102
-0.454787987010650 -0.847792389619481 -0.272792871926836 -0.456462374931838 -0.846762132377477 -0.273195884747804
0.380814199582356 -0.848392419620981 -0.367710276883998 0.381159380984170 -0.848322735287382 -0.367513350889867
0.123765735728287 -0.848892444622231 -0.513871248585605 0.271504160037386 -0.819280725288222 -0.505039190809583
0.291821159795305 -0.849692484624231 -0.439161806477776 0.292319707070788 -0.848635160368442 -0.440871357024333
0.081444791412198 -0.849792489624481 0.520787356345802 0.082233228750271 -0.848733751173740 0.522387514885125
0.189958219316499 -0.850992549627481 -0.489619806985608 0.190082180754679 -0.849916922414636 -0.491436658739231
0.190605305223093 -0.851092554627731 0.489194318321517 0.191743027424084 -0.850015526837600 0.490620235588835
-0.470846968444525 -0.851192559627981 -0.231892989847831 -0.472652140534480 -0.850114132313199 -0.232176476176103
0.345533800107417 -0.851792589629482 -0.393771224489079 0.346284311715246 -0.850705787313397 -0.395457758668851
0.251900777005528 -0.853092654632732 -0.456923320870899 0.252280901535382 -0.851987837302774 -0.458771263058876
0.122864950824998 -0.853192659632982 0.506918622075743 0.123834468795302 -0.852086463981327 0.508540738031855
-0.432879569606918 -0.853292664633232 -0.290700716717466 -0.434693169166288 -0.852185091728134 -0.291242885091604
0.392370233754530 -0.853892694634732 -0.341925234097825 0.243552964330515 -0.913692911049299 -0.325341694014272
0.147310772654156 -0.854392719635982 -0.498309759981747 0.147285607229953 -0.853270067630979 -0.500237085378452
-0.483216854273672 -0.854592729636482 -0.190191319986807 -0.490713326960414 -0.844468639234700 -0.214646565527000
0.308527248393200 -0.855192759637982 -0.416480828924566 0.309173550102845 -0.854059222791663 -0.418323511031001
0.053813225991264 -0.855292764638232 0.515343015345996 0.054582571841858 -0.854157872051359 0.517141250011855
0.211025090796674 -0.856492824641232 -0.471050371396031 0.211266234984908 -0.855341747900995 -0.473029673755223
0.162534336775592 -0.856592829641482 0.489725753433202 0.163695340334993 -0.855440411306416 0.491350728356558
-0.450507728847412 -0.856692834641732 -0.251237284896691 -0.452464574202339 -0.855539075805565 -0.251651939912363
0.358881786672808 -0.857292864643232 -0.369124379344326 0.359799086800069 -0.856131085806302 -0.370923416696705
0.270109069306677 -0.858592929646482 -0.435728438180654 0.270629459689383 -0.857413910091773 -0.437722608885318
0.095129213446665 -0.858692934646732 0.503584031455329 0.096094022159816 -0.857512596625244 0.505408830091225
-0.410177263823636 -0.858792939646982 -0.306967912092859 0.414408146750130 0.860767930851582 0.295540956763372
0.402135224444308 -0.859392969648482 -0.315802129473328 0.250985222388909 -0.920452265698509 -0.299623171188196
0.169524456296270 -0.859892994649732 -0.481503371192528 0.169606244040747 -0.858696921846561 -0.483604506175896
0.200182698226023 -0.859992999649982 0.469402735275344 0.190505068265298 -0.858654488730307 0.475836408809298
-0.464531982219580 -0.860093004650232 -0.210831830725067 -0.467404399972971 -0.856016875739406 -0.220835312699878
0.323554199445304 -0.860693034651733 -0.393090549521736 0.324361552768061 -0.859486561488963 -0.395060038102782
0.026941102763622 -0.860793039651983 0.508241595964538 0.038198016409662 -0.862711177545783 0.504252254015721
0.230600649663815 -0.861993099654983 -0.451432427415024 0.230973299459280 -0.860769879843323 -0.453570886291662
0.134855216355602 -0.862093104655233 0.488476764572877 0.136026717866543 -0.860868604577016 0.490308043662428
-0.429255158755276 -0.862193109655483 -0.269003811022431 -0.431359148784862 -0.860967330448447 -0.269563611528104
0.498061418884278 -0.862293114655733 -0.091571870333059 -0.203271868289409 0.881468575309076 0.426255437859414
0.370468146097106 -0.862793139656983 -0.344007777365889 -0.371564551219936 0.861559709623230 0.345911334059269
0.127729624770155 -0.863293164658233 -0.488272521047876 0.129049369160319 -0.863667791376095 -0.487261948502921
0.286694602038911 -0.864093204660233 -0.413701751049907 0.287368980298613 -0.862843339369986 -0.415837036430121
0.068028623149582 -0.864193209660483 0.498540071417619 0.068975153525941 -0.862942088182474 0.500573052250462
0.190327616024810 -0.865393269663483 -0.463540599515791 0.190530824333674 -0.864127164360928 -0.465813534359266
0.172715951774854 -0.865493274663733 0.470202713214581 0.174103514733232 -0.864225928271633 0.472018549487804
-0.444819210977733 -0.865593279663983 -0.229965527298541 -0.444269853490536 -0.866319773495241 -0.228285670445286
0.336857996207288 -0.866193309665483 -0.369101396207014 0.337839289786691 -0.864917308394735 -0.371190872618968
0.248618120923408 -0.867493374668733 -0.430864566719481 0.249136296717146 -0.866201452911928 -0.433158341292571
0.107683793883501 -0.867593379668983 0.485474951042180 0.108852865417323 -0.866300241534916 0.487519174194188
-0.407193340515913 -0.867693384669233 -0.285134658785531 -0.409439432184826 -0.866399031345159 -0.285853231320440
0.380263969271468 -0.868293414670734 -0.318537061757883 -0.381551323565485 0.866991795183741 0.320536760090788
0.149617193679462 -0.868793439671984 -0.472030353407920 0.149629654294243 -0.867485797861922 -0.474425291340638
0.301604246819283 -0.869593479673984 -0.390950199397655 0.302445951393569 -0.868276264504827 -0.393221025611782
0.041674606384256 -0.869693484674234 0.491829716363200 0.042589263259292 -0.868375078251671 0.494075781764736
0.416220957827607 -0.870393519675984 -0.263011853670367 -0.052753656350583 0.935474431395746 0.349434743473585
0.209645286192107 -0.870893544677234 -0.444514665468927 0.209984093595634 -0.869560937630689 -0.446956884032071
0.145626892564847 -0.870993549677484 0.469215349900366 0.147028798370851 -0.869659767143607 0.471247728759886
-0.424177987586713 -0.871093554677734 -0.247525865003631 -0.426587890342435 -0.869758597876149 -0.248078119215918
0.479803569768707 -0.871193559677984 -0.103972669547382 -0.489062628995419 0.859162925755022 0.150521798847074
0.348400167635616 -0.871693584679234 -0.344626780184799 -0.349567842715943 0.870351607941011 0.346829067255642
0.108795567327761 -0.872193609680484 -0.476908619928764 0.370323883066615 -0.853119405153519 -0.367488098012671
0.265015473400360 -0.872993649682484 -0.409449491967495 0.265692825127236 -0.871636614872825 -0.411894324176663
0.081135200449534 -0.873093654682734 0.480754146524771 0.082288907580705 -0.871735470211180 0.483017396855295
-0.384430038424886 -0.873193659682984 -0.299576998860189 -0.445825152524243 -0.859436174822115 -0.250218693913677
0.388246195371583 -0.873793689684484 -0.292830120798845 0.388372418285194 -0.873850047041928 -0.292494376014529
0.170099410186244 -0.874293714685734 -0.454617081856051 0.170236016651593 -0.872921831373202 -0.457194898207159
0.181595984495067 -0.874393719685984 0.449953910294127 0.173242461986867 -0.873536381338353 0.454885963559026
0.463762297624919 -0.874593729686484 -0.141457906441247 -0.418830720849955 0.897549669518597 0.137787582965100
0.314790071363237 -0.875093754687734 -0.367584182844762 -0.315812006365569 0.873712838997731 0.369984664014441
0.016177097718631 -0.875193759687984 0.483502000525967 0.015832542586642 -0.875258073846195 0.483396974299892
0.420521313951053 -0.875893794689734 -0.236583779953101 0.346869229723938 -0.906386110082078 -0.241134727737424
0.227406795910706 -0.876393819690985 -0.424523287913717 0.227895008669341 -0.874998398941082 -0.427131908049659
0.119033657878757 -0.876493824691235 0.466464964997517 0.120437788157731 -0.875097297072878 0.468721089603846
-0.402711865800588 -0.876593829691485 -0.263450964868656 -0.405274622939634 -0.875196196482135 -0.264166798944041
0.358147798167366 -0.877193859692985 -0.319782875064929 0.359513818655274 -0.875789619832520 -0.322090602144046
0.130303957988368 -0.877693884694235 -0.461166264272343 0.130216145898898 -0.876284174634745 -0.463863989367509
0.444752964276142 -0.877993899694985 -0.176978848640108 0.228287793194260 -0.965507418418156 -0.125220239809709
0.279735468834860 -0.878493924696235 -0.387293805459818 -0.280585209852599 0.877075529526396 0.389885182480645
0.055323669972277 -0.878593929696485 0.474354296113450 0.056449230755945 -0.877174454728257 0.476842175482882
0.394397581177140 -0.879293964698235 -0.267006875579788 0.391780056824134 -0.881144936154355 -0.264748916077887
0.189097281849842 -0.879793989699485 -0.436124699696845 0.189371823837175 -0.878361659024644 -0.438883934875790
0.155103119408655 -0.879893994699735 0.449143162522872 0.156766859595027 -0.878460601241232 0.451365842526443
-0.417597209234954 -0.879993999699985 -0.226325277711530 0.484169785888545 0.702945454386307 0.521006052354738
0.460623923336871 -0.880094004700235 -0.115152699232156 -0.455141063925685 0.882227913916522 0.120501119642509
0.326209346848501 -0.880594029701485 -0.343717350278938 0.327423937303764 -0.879153233708995 -0.346241472009809
-0.008355607072384 -0.880694034701735 0.473611867536310 -0.077815158611400 0.922358953259427 -0.378416123378032
0.422989751894065 -0.881394069703485 -0.210295420026508 -0.411568422382538 0.886125649336760 0.213055784444015
0.243545812086747 -0.881894094704735 -0.403668481727175 -0.244196778360635 0.880439723819216 0.406440433716220
0.093054091362475 -0.881994099704985 0.461981973854280 0.094448542037736 -0.880538693955403 0.464468601042373
-0.380528301149113 -0.882094104705235 -0.277683637380453 0.380539376156038 0.882390336317318 0.276725635907810
0.366073493466296 -0.882694134706735 -0.294688415000843 -0.367649326736806 0.881231522589382 0.297094220988516
0.150407331658055 -0.883194159707985 -0.444236098084351 0.150444212933647 -0.881726440725217 -0.447129760271910
0.443524442962774 -0.883494174708735 -0.150745188149710 0.440234896842897 -0.885407651326110 -0.149152695499967
0.292725661852516 -0.883994199709986 -0.364507807559877 0.293760504697996 -0.882518380462779 -0.367241166027085
0.030362403768817 -0.884094204710236 0.466321307292681 0.031447374730874 -0.882617379077603 0.469039043974720
0.398706626527262 -0.884794239711986 -0.241189094562213 0.400632970740450 -0.883310407832567 -0.243425442734211
0.206535649350607 -0.885294264713236 -0.416649841489439 -0.206961413037287 0.883805469745852 0.419588924020789
0.129097076512074 -0.885394269713486 0.446554511783902 0.130770820699425 -0.883904486283397 0.449012084004076
-0.396672747627381 -0.885494274713736 -0.241972355319651 -0.396193084756351 -0.886251164128884 -0.239978985895527
0.335824504558319 -0.886094304715236 -0.319466407137562 -0.337243658653744 0.884597640997221 0.322108255466989
0.111656066944734 -0.886594329716486 -0.448869042404361 -0.111755997344228 0.886964609504877 0.448112015620490
0.423630951300708 -0.886894344717236 -0.184269472264513 0.420351016159971 -0.888858073352045 -0.182308388863954
0.258000326730385 -0.887394369718486 -0.382056362332766 0.258826846868712 -0.885885110435359 -0.384988615999138
0.067805621107048 -0.887494374718736 0.455802734292904 0.069178922844084 -0.885984156422001 0.458526281911221
0.372155294771682 -0.888194409720486 -0.269464519212975 0.373951905552741 -0.886677518117298 -0.271961304598324
0.169022030749984 -0.888694434721736 -0.426208581349280 -0.169196608795422 0.887172819294047 0.429298143809150
0.163199132838776 -0.888794439721986 0.428264505837167 0.162816677909263 -0.889166697881368 0.427636893606405
0.440519158590566 -0.888994449722486 -0.125026954202978 0.443085665800093 -0.887470017218912 -0.126775633699664
0.303938341490353 -0.889494474723736 -0.341205310638680 -0.305170435143479 0.887965375923139 0.344076294847548
0.006363488924527 -0.889594479723986 0.456706872789668 0.007395986613693 -0.888064452002156 0.459659470121220
0.401167448794594 -0.890294514725736 -0.215500243797780 0.403327237410243 -0.888758025232532 -0.217798788214699
0.222343155569646 -0.890794539726986 -0.396293589607401 0.222932800851400 -0.889253478469057 -0.399411088147579
0.103698780011702 -0.890894544727236 0.442214284255196 0.105372246181918 -0.889352573515699 0.444914249845498
-0.375013645853666 -0.890994549727486 -0.255916935311939 0.378075162046335 0.889451670032347 0.256777916730212
0.343603032272744 -0.891594579728986 -0.294950947804661 0.345238111652278 -0.890046280094769 -0.297704997526467
0.131321907573406 -0.892094604730236 -0.432344507080274 0.131220064393507 -0.890541829205519 -0.435564627966794
0.422455298179315 -0.892394619730987 -0.158629643243040 0.424956568842851 -0.890839176534932 -0.160678175704965
0.270712576825209 -0.892894644732237 -0.359796962406783 -0.271726807357903 0.891334785333957 0.362886817915379
0.043405195967952 -0.892994649732487 0.447969356666432 0.044746582520452 -0.891433911596368 0.450936053791153
0.376376532230647 -0.893694684734237 -0.244234552149786 0.378404392440794 -0.892127837664437 -0.246815795778324
0.186067624717730 -0.894194709735487 -0.407178904307395 0.186392159510876 -0.892623544613400 -0.410464578830722
0.137783399729145 -0.894294714735737 0.425737827723596 0.139766318467630 -0.892722690572838 0.428382508931443
0.435763683109114 -0.894494724736237 -0.099945984922975 0.428075685029494 -0.869175814918677 -0.247557287606293
0.313330401993017 -0.894994749737487 -0.317503475775034 0.314771269732989 -0.893416755157266 -0.320508267217778
-0.016562115554081 -0.895094754737737 0.445568262300362 -0.016817062540759 -0.895288433561009 0.445169413975595
0.093749545650426 -0.895494774738737 -0.435086349022763 -0.104007797730440 0.898609459260482 0.426243378527865
0.401779596779057 -0.895794789739487 -0.190065384243547 0.404182346377371 -0.894210064258395 -0.192418792886453
0.236452136741912 -0.896294814740737 -0.375161288113595 -0.237217557461745 0.894705932910252 0.378456237955036
0.079029314563509 -0.896394819740987 0.436154438910285 0.080693107210896 -0.894805111324814 0.439104127964697
-0.352730791714221 -0.896494824741237 -0.268100760515216 0.352243104174269 0.896698996181472 0.268059146101782
0.349517297638500 -0.897094854742737 -0.270293322606364 0.351379096899122 -0.895499404174609 -0.273154804799911
0.149488289365855 -0.897594879743987 -0.414700715215018 0.149520100011575 -0.895995374974881 -0.418133982972145
0.169819792173370 -0.897694884744237 0.406577338387451 -0.198461355416391 -0.879446819841013 0.432650414859176
0.419478664620667 -0.897894894744737 -0.133500591457116 0.422230803385154 -0.896292976505903 -0.135573039129892
0.281628881121127 -0.898394919745987 -0.337004067472580 0.282842228712192 -0.896789010978967 -0.340249531145140
0.019969296144937 -0.898494924746237 0.438529471548640 0.021269037994018 -0.896888222679748 0.441745564823431
0.378725604195761 -0.899194959747987 -0.219124031293628 0.380994722508019 -0.897582749687203 -0.221784194398514
0.201466765179569 -0.899694984749237 -0.387246790748677 -0.201952576330872 0.898078888996631 0.390729402594558
0.112972741418402 -0.899794989749487 0.421433430233211 0.114969877009297 -0.898178121744378 0.424332403900774
-0.367802788578462 -0.899894994749737 -0.234329057392114 -0.368227929491919 -0.763149612752825 -0.531046947545418
0.320863126332759 -0.900495024751238 -0.293522681505597 0.322523602554013 -0.898872796835132 -0.296658424632387
-0.038304506232108 -0.900595029751488 0.432968078718549 -0.030474274679990 -0.905321969189452 0.423631267360733
0.112918205708634 -0.900995049752488 -0.418876353045926 -0.112630616808006 0.899369042737883 0.422433035074426
0.400547791034283 -0.901295064753238 -0.165011130985195 -0.403202708261922 0.899666810173001 0.167413281203702
0.248798416224848 -0.901795089754488 -0.353362369500068 0.249750575351880 -0.900163122577962 -0.356834699632892
0.055209961726681 -0.901895094754738 0.428412299290626 0.056855983908006 -0.900262390080935 0.431619075226774
-0.329938842892900 -0.901995099754988 -0.278469387848080 -0.317957323029158 -0.943453837913073 -0.093797635680356
0.353544281301868 -0.902595129756488 -0.245618551617370 0.355643017828853 -0.900957309747151 -0.248583929252804
0.166068464785590 -0.903095154757738 -0.396030815034455 0.166244316809791 -0.901453731747846 -0.399679867702051
0.144990193255224 -0.903195159757988 0.404000429764073 0.147328714118426 -0.901553021259312 0.406812487338352
0.414722117125652 -0.903395169758488 -0.109007948443450 -0.413928467022328 0.903861285283152 0.108157298204208
0.290699372823342 -0.903895194759738 -0.313795078881698 0.292122372177720 -0.902248095828946 -0.317195355020061
-0.002385960553547 -0.903995199759988 0.427535947030348 -0.001136131745491 -0.902347399080197 0.431007982034974
0.076666379324809 -0.904395219760988 -0.419751775165631 -0.086725693512638 0.907535285742387 0.410923787602076
0.379195664731936 -0.904695234761738 -0.194260598289794 -0.381715640798220 0.903042570370115 0.196995648858902
0.215144927066940 -0.905195259762988 -0.366516305312571 -0.215802151014969 0.903539173607497 0.370197776025186
0.088892446258209 -0.905295264763238 0.415377679462306 0.090897664984200 -0.903638499518986 0.418539217621832
-0.345956394082483 -0.905395269763488 -0.246117002426379 0.345565994679711 0.906226244255325 0.243594206712535
0.326501859980162 -0.905995299764988 -0.269386436617071 0.328392022912318 -0.904333830338248 -0.272651797341058
-0.058754651559593 -0.906095304765238 0.418973972464282 0.029683412243208 -0.960015435158525 0.278368926597397
0.130568935575577 -0.906495324766238 -0.401519587616361 0.130405243779613 -0.904830548514357 -0.405309944203184
0.397481572617403 -0.906795339766988 -0.140465694055412 -0.400397685430257 0.905128600899002 0.142912243480773
0.259320974329573 -0.907295364768238 -0.331010201267015 0.260469701629769 -0.905625390902894 -0.334661300249789
0.032362341653090 -0.907395369768488 0.419030215814369 0.033984329310135 -0.905724754332610 0.422501757097498
0.355665195968522 -0.908095404770239 -0.221054301500444 -0.358010511286176 0.906420349339632 0.224121895654192
0.180977779967425 -0.908595429771489 -0.376432448330941 -0.181306536628178 0.906917257921118 0.380301232000024
0.120766129348843 -0.908695434771739 0.399609995904881 0.123140528812337 -0.907016645174659 0.402687491163961
0.297877599201025 -0.909395469773489 -0.290290915203507 0.299519765371317 -0.907712407978154 -0.293847059802225
-0.023544587819288 -0.909495474773739 0.415046544077302 -0.022350925577996 -0.907811810132133 0.418781749256612
0.095277032485143 -0.909895494774739 -0.403748034879996 -0.094745302557126 0.908209437535170 0.407650518478033
0.377784194500822 -0.910195509775489 -0.169774074492848 -0.380564304617617 0.908507677897992 0.172582181152360
0.227030002530066 -0.910695534776739 -0.345095669183065 0.227867282143775 -0.909004783145515 -0.348979664088018
0.065668836729704 -0.910795539776989 0.407601629786868 0.067678298363408 -0.909104209919087 0.411034284990956
-0.323580041712432 -0.910895544777239 -0.256057148133689 0.327385003104549 0.909203638607761 0.257231030952026
0.330215543580557 -0.911495574778739 -0.245221352937654 0.326500683650915 -0.912053301028286 -0.248104977094157
-0.077804062988479 -0.911595579778989 0.403658304398527 -0.069254605279343 -0.916343047672418 0.394359250722013
0.146607252169155 -0.911995599779989 -0.383106172742424 0.141951733849488 -0.912548201370182 -0.383543329277373
0.150599176153767 -0.912095604780239 0.381315480779861 0.148028510780696 -0.912369640423457 0.381666345424406
0.392594834827314 -0.912295614780739 -0.116559027615828 0.390117902796478 -0.912845168837139 -0.120506097971735
0.267961457225014 -0.912795639781989 -0.308221961314952 0.263777506066679 -0.913340160236154 -0.310211506867558
0.010608693529195 -0.912895644782239 0.408055140096560 0.015032555632369 -0.913439165378363 0.406697569975578
0.060496263081203 -0.913295664783239 -0.402779382343922 0.220845702504030 -0.941370645935140 -0.255046040269517
0.355864957977954 -0.913595679783989 -0.196730947141978 0.352647970847901 -0.914132265689068 -0.200004023667098
0.194133178910676 -0.914095704785239 -0.356007515846523 0.189688802228874 -0.914627406537747 -0.357036224379279
0.097277727759679 -0.914195709785489 0.393425021944104 -0.101244932344180 0.914726441656665 -0.391184100659471
0.303119947362501 -0.914895744787239 -0.266615966665834 0.299334995047916 -0.915419752627686 -0.269082212787709
-0.043390335157439 -0.914995749787489 0.401123493061370 -0.038939019446238 -0.915518806385672 0.400386148510062
0.112342009090701 -0.915395769788489 -0.386561583252661 -0.107852680636477 0.915915044846521 0.386610178220027
0.374492419818732 -0.915695784789240 -0.145796629650789 0.371809311984554 -0.916212248359756 -0.149375203689008
0.237051701002946 -0.916195809790489 -0.323097089392584 0.232893272733583 -0.916707634729389 -0.324665729550085
0.043429599224509 -0.916295814790740 0.398140489913012 0.047550160158709 -0.916806719102730 0.396490128599653
-0.300791679016463 -0.916395819790990 -0.264089127576387 0.300398344210817 0.917115856499496 0.262029274228273
0.331976060153092 -0.916995849792490 -0.221157199630896 0.328641642042873 -0.917500376282523 -0.224026182926892
-0.095344273249186 -0.917095854792740 0.387097743057950 -0.086389091093976 -0.921861182568827 0.377768295404418
0.160939375973777 -0.917495874793740 -0.363730445519263 0.156614414229715 -0.917995917351374 -0.364356173244934
0.126951000936278 -0.917595879793990 0.376697816221931 -0.123054710208213 0.917382068121264 -0.378507172171316
0.385905201436338 -0.917795889794490 -0.093423124443147 -0.384122867391429 0.918496683499506 0.093880057240046
0.274663472575545 -0.918295914795740 -0.285118553767022 0.270855487312010 -0.918788908172599 -0.287165887967177
-0.009927658500326 -0.918395919795990 0.395538084258367 -0.005742567715059 -0.918888042908655 0.394476599452414
0.078486616651645 -0.918795939796990 -0.386851227242649 -0.074204153130662 0.919284606156184 0.386535323796458
0.354131463475059 -0.919095954797740 -0.172781748027514 0.351286127432086 -0.919582054188961 -0.175974152327488
-0.144327604745300 -0.919195959797990 0.366399140282201 0.027587907012569 -0.976562694305449 0.213457751036471
0.205452475026957 -0.919595979798990 -0.334861933403654 0.201366317169047 -0.920077849892722 -0.336018387066187
0.074657198800688 -0.919695984799240 0.385468024888435 -0.078445856489230 0.920177016406682 -0.383562910194102
-0.315241546996996 -0.919795989799490 -0.233662372229071 -0.316063531455940 -0.814748593744272 -0.486095230459352
0.306384837908654 -0.920396019800990 -0.242898122335649 0.302980198771597 -0.920871251175615 -0.245355126114334
-0.061806070760389 -0.920496024801240 0.385832966375706 -0.057641974045421 -0.920970437488518 0.385345112983615
0.127757127212905 -0.920896044802240 -0.368277872148051 -0.123595831698135 0.921367207653352 0.368519387614697
0.369324528840223 -0.921196059802990 -0.122463103832923 0.366993278070914 -0.921664811522051 -0.125896421922099
0.245140688586079 -0.921696084804240 -0.300636607977269 0.241358013574031 -0.922160868210632 -0.302267501436411
0.022304320462942 -0.921796089804490 0.387032926389782 0.026189178238912 -0.922260087112785 0.385681810125767
0.045339111303797 -0.922196109805490 -0.384055594993488 0.181904129625504 -0.958185008073827 -0.220889967920111
0.331757332446314 -0.922496124806240 -0.197327068811087 0.328796367746446 -0.922954690420300 -0.200118934606180
-0.111266053840117 -0.922596129806490 0.369372774482546 0.111385503502440 0.922816233083951 -0.368786482352940
0.173471353080311 -0.922996149807490 -0.343490607005541 -0.169504722826060 0.923450912131427 0.344247820360995
0.104047272290699 -0.923096154807740 0.370226490284028 -0.107477899568159 0.923550164166312 -0.368108130000947
0.279371595968041 -0.923796189809490 -0.261824580701923 0.275945955315087 -0.924245000624807 -0.263865512269594
-0.029121587124501 -0.923896194809740 0.381533424983228 -0.025223410166871 -0.924344273334122 0.380724892716471
0.094892169664879 -0.924296214810741 -0.369691741080091 -0.090938496520747 0.924741390208825 0.369572118922945
0.350454598962830 -0.924596229811490 -0.149343181579138 0.347964397152519 -0.925039255304824 -0.152391451398629
0.214853305246658 -0.925096254812741 -0.313105376121247 0.211145570208030 -0.925535749691946 -0.314326461220962
0.053039438196812 -0.925196259812991 0.375764153191626 0.056591910135726 -0.925635056486970 0.374161860575812
-0.292746395127269 -0.925296264813241 -0.241094111215215 0.292536470441546 0.926271482374762 0.237578522600137
0.307631600984182 -0.925896294814741 -0.219268897302477 0.304604334255531 -0.926330278411351 -0.221649306001835
-0.078672861027428 -0.925996299814991 0.369244409120443 -0.074839384718777 -0.926429606498000 0.368954266405575
0.141416897552797 -0.926396319815991 -0.348985844581023 -0.137617557690913 0.926826945676497 0.349361160667817
0.131374204130496 -0.926496324816241 0.352626400870776 0.132725280859904 -0.924482024341922 0.357375134122845
0.362286609205739 -0.926696334816741 -0.099911540011288 0.360280687841833 -0.927124978344367 -0.103136319975912
0.251227368604322 -0.927196359817991 -0.277833978491499 0.247832030448837 -0.927621753658752 -0.279458703250891
0.002425308469833 -0.927296364818241 0.374320143291411 0.006019594384600 -0.927721116889116 0.373225526674497
0.062645043820003 -0.927696384819241 -0.368042138997834 -0.058942639204841 0.928118597176429 0.367588948227263
0.329534075163258 -0.927996399819991 -0.173867694605501 0.326933535348836 -0.928416736246108 -0.176512966442798
-0.125458272330143 -0.928096404820241 0.350567090959319 -0.113739348723391 -0.925152226619064 0.362155654565502
0.184107792358940 -0.928496424821241 -0.322488309690275 -0.180525985869882 0.928913690005091 0.323310570422363
0.082027073305405 -0.928596429821491 0.361911908850386 -0.085216935762551 0.929013089093302 -0.360101033256725
0.282029975522901 -0.929296464823241 -0.238468390722080 0.278988618537471 -0.929708961067832 -0.240430028151074
-0.046845093463948 -0.929396469823491 0.366097991114382 -0.043284604655000 -0.929808382599236 0.365489828378373
0.109596252658923 -0.929796489824491 -0.351378924970147 -0.106012536013310 0.930206097036577 0.351394307358565
0.344824881035487 -0.930096504825241 -0.126555494273193 0.342665988571339 -0.930504412726214 -0.129389173324006
0.222251640709578 -0.930596529826491 -0.290851004599938 -0.218940157918989 0.931001662812565 0.292063539474968
0.032562945959941 -0.930696534826741 0.364339971197104 0.035816503914659 -0.931101121465043 0.362998456820232
-0.269931046448651 -0.930796539826991 -0.246485357798869 0.269030169571025 0.931361762126445 0.245332500719549
0.031308776828855 -0.931096554827741 -0.363426699736538 0.197099779137061 -0.954269876052206 -0.224768059838203
0.306818906472385 -0.931396569828491 -0.195863698379282 0.304160308079164 -0.931797413246572 -0.198091109482948
-0.093868625199824 -0.931496574828741 0.351429669045483 -0.090411062234205 -0.931896895165263 0.351274844825283
0.153213009822164 -0.931896594829742 -0.328777295697203 -0.149809643631058 0.932294852211758 0.329216310675204
0.109034048465779 -0.931996599829992 0.345678917755331 0.111833048233944 -0.932394348843212 0.343706484617250
0.353385192369494 -0.932196609830491 -0.078284011359370 -0.356019410680788 0.929836068153288 0.093032604928266
0.255240155789623 -0.932696634831742 -0.254812578665249 -0.252240076197512 0.933090908419137 0.256351907707788
-0.016071186372761 -0.932796639831992 0.360044644018930 -0.012826981100678 -0.933190428876434 0.359153298758705
0.078312799705348 -0.933196659832992 -0.350729382115125 -0.074993763225431 0.933588540798659 0.350411717793112
0.325280057237102 -0.933496674833742 -0.150919986874422 0.323019619640257 -0.933887156501154 -0.153339832560401
0.192750056755537 -0.933996699834992 -0.300828157455517 -0.189578515899584 0.934384910308741 0.301636910368470
0.061033896229227 -0.934096704835242 0.351764423339006 -0.063910972614296 0.934484470270339 -0.350220162759169
0.282580363078369 -0.934796739836992 -0.215182233450229 -0.279920040921810 0.935181476614958 0.216980129243668
-0.062965741329735 -0.934896744837242 0.349289839404936 -0.059797738234911 -0.935281061399185 0.348817383010082
0.122477878661055 -0.935296764838242 -0.331992666969929 -0.119307275108868 0.935679431915929 0.332068930789348
0.133846352885105 -0.935396769838492 0.327288919450493 -0.122608957759841 -0.915282665462423 0.383698691398664
0.337231563360206 -0.935596779838992 -0.104563560710891 0.335371081414049 -0.935978242936798 -0.107102598008240
0.227559661565403 -0.936096804840242 -0.268215160638114 -0.224659807851900 0.936476324952200 0.269332626207756
0.013371196137712 -0.936196809840492 0.351221787989203 0.016255851401738 -0.936575950963845 0.350087468172418
-0.246919056272922 -0.936296814840742 -0.249758391587492 0.241740678258992 0.941177468666636 0.236106791408351
0.047863905233334 -0.936596829841492 -0.347124509227858 -0.044859603176187 0.936974487271766 0.346506026216985
0.303902550391334 -0.936896844842242 -0.172822284414639 -0.301596910658015 0.937273423575957 0.174807988775536
-0.107266179988898 -0.936996849842492 0.332461832419656 0.101551632485760 0.934787430753713 -0.340381734592723
0.163032149696954 -0.937396869843492 -0.307746042334931 -0.160059620057273 0.937771716231810 0.308164122283512
0.087596844432828 -0.937496874843742 0.336788364560933 0.090062643540193 -0.937871384651922 0.335091011651518
0.257103015633031 -0.938196909845492 -0.231699369245517 -0.254501942047811 0.938569156810440 0.233059433145351
-0.033043173748864 -0.938296914845742 0.344248526880747 -0.030215434076410 -0.938668851957223 0.343493542746996
0.092209126798584 -0.938696934846742 -0.332182993912050 -0.089327873428467 0.939067666386018 0.331922353837560
0.318965647696373 -0.938996949847492 -0.128629871207038 0.317015810040256 -0.939366812968083 -0.130732424741173
0.199293658536083 -0.939496974848743 -0.278617070398360 -0.196557198487608 0.939865459382564 0.279317357108906
0.041217142888600 -0.939596979848992 0.339792087298620 0.043698708818341 -0.939965199058135 0.338460998354627
-0.259709937019217 -0.939696984849242 -0.222531627591938 -0.181642435206731 -0.852353156987170 -0.490408117292296
0.018538796495784 -0.939996999849992 -0.340678665750442 -0.018430494763581 0.940078764592848 0.340458856874592
0.280959302807323 -0.940297014850743 -0.192102561223961 -0.278670472701811 0.940663474838231 0.193636243377665
-0.077344366068456 -0.940397019850993 0.331166565481542 -0.074629895376269 -0.940763242634776 0.330748998522184
0.133409126454271 -0.940797039851993 -0.311613438067803 -0.130698336134924 0.941162349468026 0.311659071543551
0.112028265184314 -0.940897044852243 0.319628563786327 -0.109431722701590 0.940995277019464 -0.320238327958449
0.327659954114313 -0.941097054852743 -0.083518188541780 0.326053195522431 -0.941461717282120 -0.085668830865217
0.230682692632933 -0.941597079853993 -0.245317008236390 -0.228207330938540 0.941960736187221 0.246234411867099
-0.004385333813762 -0.941697084854243 0.336433305759645 -0.001950288082146 -0.942060550937725 0.335437199402968
-0.223837375392274 -0.941797089854493 -0.250828768125003 -0.222305052471043 -0.942598013540247 -0.249177544164454
0.062709148433609 -0.942097104855243 -0.329424661684734 -0.060176783544574 0.942459846835214 0.328858923895301
0.298832282590091 -0.942397119855993 -0.150289505186242 -0.296854982557214 0.942759357782084 0.151927326854875
0.170752822360929 -0.942897144857243 -0.285986796680959 -0.168248081684393 0.943258617852841 0.286279169441071
0.067216283909208 -0.942997149857493 0.325942244175378 0.069250478378250 -0.943358481236078 0.324467482383589
-0.009383396068500 -0.943397169858493 -0.331532399293354 0.098040923099785 -0.991089699567691 -0.090161992039697
0.256731903846424 -0.943697184859243 -0.208624909433485 0.258316459072210 -0.943162625574369 -0.209085792659518
-0.048340270834035 -0.943797189859493 0.326971073076834 -0.049200929843094 -0.943260032871616 0.328389675369996
0.104191753194546 -0.944197209860493 -0.312467130203974 0.105306389703684 -0.943649732676152 -0.313744715187049
0.310554279395161 -0.944497224861243 -0.107149576661612 0.312273714667659 -0.943942081882511 -0.107044258038311
0.203624456832445 -0.944997249862493 -0.255963431630412 0.205168634623130 -0.944429472786789 -0.256824458139307
0.022734365608385 -0.945097254862743 0.325997434761826 0.022175535415920 -0.944526972371188 0.327684366566874
-0.236761883383044 -0.945197259862993 -0.224824265870932 0.241740678258992 0.941177468666636 0.236106791408351
0.034274023004499 -0.945497274863743 -0.323821238605998 -0.035131639612432 0.944917042314925 0.325419039149459
0.277094040464003 -0.945797289864493 -0.169370538241789 0.278910289725333 -0.945209670184925 -0.169669471839332
-0.089831692118612 -0.945897294864743 0.311782896674381 -0.010923786936677 -0.928672947724504 0.370738758485868
0.142251288115315 -0.946297314865743 -0.290320448655306 0.143654043852047 -0.945697527600401 -0.291581381393671
0.091134342239189 -0.946397319865993 0.309881662276255 -0.090951752930646 0.945795120804131 -0.311768131953768
0.316087522535196 -0.946597329866493 -0.063578087319354 0.277615489992860 -0.917336951942885 -0.285346379539256
-0.035635381764796 -0.946797339866993 -0.319851397976095 0.172382850812956 -0.984740304100806 0.023889039851971
0.231514705274790 -0.947097354867743 -0.222278072791831 0.233329968453304 -0.946478476999247 -0.223014838965405
-0.020546138436704 -0.947197359867993 0.319992214990369 -0.021390193856251 -0.946576128529041 0.321770248012093
-0.200816276434566 -0.947297364868243 -0.249600732436101 -0.200983892547779 -0.948014266525960 -0.246727431388546
0.075688392813962 -0.947597379868993 -0.310371507807431 -0.076847989037459 0.946966808049369 0.312006812479614
0.291547156396316 -0.947897394869744 -0.128416449088018 0.293577787037785 -0.947259895021122 -0.128494257624880
0.176240651105131 -0.948397419870993 -0.263593563806255 0.177948059643841 -0.947748521365672 -0.264777696036076
0.048055124376997 -0.948497424871244 0.313118731528043 0.047594546612036 -0.947846268930541 0.315154263190660
0.007191750454468 -0.948897444872244 -0.315502643159020 -0.008012013064670 0.948237333842310 0.317461440736163
0.254029500297031 -0.949197459872994 -0.185723437264921 0.256109290884173 -0.948530711195491 -0.186272706110643
-0.061799738720075 -0.949297464873244 0.308245219718592 -0.062966855551250 -0.948628518686594 0.310063072029653
-0.162491137159961 -0.949397469873494 -0.268776997792355 -0.105678001135189 0.988500076097294 0.108165427155420
0.114104743796444 -0.949697484874244 -0.291641551680627 -0.115594314813249 0.949019824131866 0.293256419857396
0.112754395844484 -0.949797489874494 0.291841008848750 -0.100763196208366 0.951088869035934 -0.292021816797687
0.299997217083457 -0.949997499874994 -0.086639598183754 0.302212618501385 -0.949313382773976 -0.086438616976249
-0.059963178372141 -0.950197509875494 -0.305825292390805 0.037390916628613 -0.976174188006553 -0.213742541445123
0.205612986990186 -0.950497524876244 -0.232975867387822 0.207630252110530 -0.949802799601394 -0.234017777696207
0.005754645755516 -0.950597529876494 0.310372711823924 0.004968045024255 -0.949900705932441 0.312512347592359
-0.213685923972279 -0.950697534876744 -0.224749912292298 0.211977950133516 0.950941315017428 0.225335225941522
0.048203260930842 -0.950997549877494 -0.305417919845311 -0.049368287725873 0.950292408196514 0.307420088951723
0.270896415873104 -0.951297564878244 -0.147132847875074 0.273221534328385 -0.950586266014388 -0.147430471897994
0.148849077849857 -0.951797589879494 -0.268188925802006 -0.150686286009773 0.951076184535780 0.269717879306216
0.071330058907726 -0.951897594879744 0.297998307979054 -0.071006961379826 0.951174191676488 -0.300375878732270
-0.018259224215230 -0.952297614880744 -0.304624118256424 0.017515709489953 0.951566298789223 0.306944260297604
0.229931544630621 -0.952597629881494 -0.199221585998949 0.232251348625641 -0.951860461970268 -0.200052423127834
-0.034936102068476 -0.952697634881744 0.301905093138542 -0.036089813847977 -0.951958532215552 0.304092877717369
-0.177989280012642 -0.952797639881994 -0.245960309066083 -0.175946607861291 -0.953970690927450 -0.242863566706722
0.086628743724713 -0.953097654882744 -0.290000553478251 -0.088168981927003 0.952350892823668 0.291982889162909
0.281968507072762 -0.953397669883494 -0.107362209738257 0.284506627610263 -0.952645247280220 -0.107345291840137
-0.082127228394525 -0.953597679883994 -0.289666330932845 -0.007540492771080 0.982298705846529 0.187169424482216
0.179341240912248 -0.953897694884744 -0.240657239661778 0.181531840304702 -0.953135999197247 -0.242028837103876
0.030288851176896 -0.953997699884994 0.298280026331842 0.029597310310044 -0.953234173887428 0.300780000923538
0.022034987878275 -0.954397719885994 -0.297723784044237 -0.023168649743441 0.953626954178381 0.300098060529436
0.248877188089698 -0.954697734886744 -0.163133013981490 0.251478746252314 -0.953921625441285 -0.163682536328164
-0.073240427471356 -0.954797739886994 0.288092199982055 -0.064586458110860 -0.954503446016185 0.291121557037474
-0.140446250314141 -0.954897744887244 -0.261620235421408 -0.133444255353979 -0.956346303924197 -0.259989187628157
0.121771396555087 -0.955197759887994 -0.269757236206893 -0.123706507265815 0.954412909393363 0.271648115111053
0.092327104069784 -0.955297764888244 0.280859192930571 -0.092176438086106 0.954511191109568 -0.283569903742188
0.287225553647081 -0.955497774888745 -0.067271714076465 0.285881060668343 -0.955875956590005 -0.067625252415687
-0.041811098713872 -0.955697784889245 -0.291365021892008 0.041179780463350 0.954904401626755 0.294043890320541
0.205105750569946 -0.955997799889994 -0.209761382739124 -0.207642204181238 0.955199397838880 0.210900036536267
-0.009536207977946 -0.956097804890244 0.292892554056018 -0.010641694029441 -0.955297746828226 0.295453836077818
-0.190601794246656 -0.956197809890495 -0.222163688280909 -0.191519172546628 -0.955396104307197 -0.224808119118698
0.060137344356592 -0.956497824891245 -0.285474010712104 -0.061695133431603 0.955691227866653 0.287833263348046
0.262253434639804 -0.956797839891995 -0.125542939258403 0.265101809158792 -0.955986428505135 -0.125741716604847
-0.101903054568982 -0.956997849892495 -0.271607957855902 0.091174909932473 0.960044882862596 0.264576942850561
0.153021664168726 -0.957297864893245 -0.245285890678345 -0.155358747900937 0.956478602272886 0.247006766799533
0.052794247135292 -0.957397869893495 0.283905065458186 -0.052230643464963 0.956577063110773 -0.286761716785218
-0.002524392474527 -0.957797889894495 -0.287431434530546 0.001454461547837 0.956970994090781 0.290179945913751
0.225780381803479 -0.958097904895245 -0.176271449270770 -0.228640687518202 0.957266534925633 0.177099455455619
-0.047358369512403 -0.958197909895495 0.282159441289906 -0.048914032360870 -0.957365066289915 0.284709584113191
-0.155493020514126 -0.958297914895745 -0.239764523810052 -0.156069223308739 -0.957463606567084 -0.242705252591204
0.095331856217316 -0.958597929896495 -0.268331597074060 -0.097336500196479 0.957759281099557 0.270597053193788
0.110829383477115 -0.958697934896745 0.261944874702292 -0.110245237591530 0.959006693918691 -0.261059664842217
0.269988944696278 -0.958897944897245 -0.087296626587920 0.273034620378976 -0.958055036661530 -0.087078371608466
-0.063207274138365 -0.959097954897745 -0.275927442286846 -0.062717983029909 -0.958252252362632 -0.278960705918598
0.179868967893854 -0.959397969898495 -0.217261800009680 -0.182600936344206 0.958548144381399 0.218728948585220
0.014111407957178 -0.959497974898745 0.281361874337433 0.013083503040173 -0.958646793409767 0.284297638810753
-0.200219999805410 -0.959597979898995 -0.197695899430640 0.031835462032751 0.915297266950105 0.401518886817083
0.034942207241595 -0.959897994899745 -0.278163407982672 -0.036489618088775 0.959041481965683 0.280905577802938
0.241122362181543 -0.960198009900495 -0.140995702910131 -0.244269091460710 0.959337596165462 0.141435453619068
-0.119081297369862 -0.960398019900995 -0.251903330638875 0.117356775225206 0.961793691586852 0.247346481948857
0.126982989532574 -0.960698034901745 -0.246849359134869 -0.129443941906725 0.959831308201441 0.248933978596654
0.073019827984635 -0.960798039901995 0.267460709715611 0.072610390533227 -0.959930079109971 0.270669492936568
0.272137443051880 -0.960998049902495 -0.049233730031213 0.262405882941238 -0.963091058794538 -0.059989708015993
-0.025189851874078 -0.961198059902995 -0.274706681755796 0.024209341707009 0.960325258688237 0.277829633587715
0.201911305351659 -0.961498074903745 -0.186422307483791 -0.205015402601925 0.960621744928902 0.187548787961216
-0.022927404581570 -0.961598079903995 0.273502224568837 -0.024461560447874 -0.960720593178980 0.276437287467309
-0.167627729421147 -0.961698084904245 -0.216881852215943 -0.168479643609191 -0.960819451231282 -0.220092234812906
0.069856530975666 -0.961998099904995 -0.263969166493408 -0.071908601888997 0.961116084513125 0.266617750842904
0.126634855165743 -0.962098104905245 0.241517804716106 0.075115266171729 0.982727842749166 -0.169126236502563
0.251012079666086 -0.962298114905745 -0.104762941494384 0.254391616880308 -0.961412807148898 -0.104739293061866
-0.082202181296726 -0.962498124906245 -0.258534641667266 0.081876884552117 0.961610672313584 0.261918099162043
0.154548216759713 -0.962798139906995 -0.221663236663237 -0.157459711544873 0.961907545840102 0.223473292578949
