ply
format ascii 1.0
element vertex 837
property float x
property float y
property float z
property float nx
property float ny
property float nz
end_header
0.137954 -1.011558 -0.120785 0.236737 -0.971410 -0.017852
0.175714 0.137473 0.149233 0.002635 0.018115 0.999832
0.138873 -0.997695 0.096325 0.081133 -0.996316 0.027796
-0.340423 -0.025543 -0.128580 -0.998297 -0.055563 -0.017769
0.096502 0.184978 -0.154051 0.125690 0.982189 -0.139667
-0.134811 0.185604 -0.059913 -0.131376 0.991169 -0.018002
0.365721 -0.419472 -0.144617 0.891618 0.431019 -0.138711
-0.059514 -0.737321 0.160606 0.000000 -0.000000 1.000000
-0.077245 0.717781 0.132131 -0.975576 -0.029153 0.217720
-0.096614 -0.549936 -0.162828 -0.000000 -0.000000 -1.000000
0.435860 -0.732916 -0.008525 0.989633 -0.143620 0.000000
-0.175494 -0.989550 -0.096134 -0.236737 -0.971410 -0.017852
0.098196 -0.713179 -0.130617 0.000000 0.000000 -1.000000
-0.317046 -0.910219 -0.160470 -0.110239 -0.143647 -0.983470
0.158409 -0.665462 0.183541 0.000000 0.000000 1.000000
0.000885 0.178023 0.162828 0.000118 -0.000032 1.000000
0.148719 -0.827518 0.150223 0.000000 0.000000 1.000000
0.036838 0.662725 0.161482 0.042647 0.000432 0.999090
-0.208330 -0.971014 0.149085 -0.035739 -0.146503 0.988564
-0.013937 0.677462 0.077768 0.000000 0.231440 -0.972849
0.226932 -0.979001 0.031907 0.236775 -0.971565 0.000000
0.310567 -0.534184 -0.162828 -0.000000 0.000000 -1.000000
0.024273 0.677216 0.183190 -0.015222 0.124768 0.992069
0.197660 0.171589 -0.074307 0.337591 0.940938 -0.025842
-0.157273 -0.914596 -0.163010 -0.000857 -0.017846 -0.999840
-0.347376 -0.629262 0.150052 -0.015424 0.001893 0.999879
0.418246 -0.709327 -0.160828 0.122616 -0.016080 -0.992324
0.133021 -0.285389 -0.162828 -0.000000 -0.000000 -1.000000
-0.062161 0.098535 -0.162514 -0.004803 0.017555 -0.999834
-0.289986 -0.673427 0.150224 0.000000 0.000000 1.000000
-0.446275 -0.763116 -0.155352 -0.978397 -0.140471 -0.151678
-0.053563 -0.034747 0.162828 0.000000 0.000000 1.000000
-0.286828 -0.608214 0.150121 0.000000 0.000000 1.000000
0.379490 -0.532376 0.149223 0.015332 0.007577 0.999854
0.325804 -0.701542 0.117446 -0.000000 0.000000 1.000000
0.457438 -0.638020 -0.092125 0.985210 0.170124 -0.020461
-0.004743 -0.871767 0.150015 -0.000025 -0.017181 0.999852
0.045772 0.703002 0.150568 0.027593 -0.011073 0.999558
0.359498 -0.611437 0.149877 0.015424 0.001893 0.999879
0.386237 -0.873811 0.021599 0.658675 -0.752428 0.000000
0.064256 -0.230961 -0.167461 0.000000 0.000000 -1.000000
-0.423901 -0.817287 -0.028818 -0.893646 -0.448773 -0.000000
-0.201632 -0.450682 -0.162828 -0.000000 0.000000 -1.000000
0.303637 -0.232324 -0.099027 0.998727 -0.046732 -0.018971
0.247317 -0.600025 0.150229 -0.000000 0.000000 1.000000
0.458928 -0.692892 -0.101760 0.989432 -0.143590 -0.020145
-0.415622 -0.518148 -0.033769 -0.883143 0.469104 0.000000
-0.351634 -0.397183 0.145751 -0.140504 0.067971 0.987744
-0.029346 0.866589 0.139258 -0.954329 0.044091 0.295488
0.300852 -0.532823 -0.162828 -0.000000 0.000000 -1.000000
0.074739 0.167084 0.148285 0.031436 0.144852 0.988954
-0.289240 -0.407858 -0.162416 -0.018277 0.008294 -0.999799
-0.262195 -0.610059 0.129064 0.000000 0.000000 1.000000
-0.309196 -0.089248 -0.161539 -0.156015 -0.006409 -0.987734
-0.128932 -0.993686 -0.140615 -0.080289 -0.985961 -0.146406
-0.050426 -0.308118 0.121856 0.000000 -0.000000 1.000000
0.165516 -0.671417 -0.161333 0.000000 0.000000 -1.000000
-0.251550 0.069330 -0.162216 -0.016597 0.005671 -0.999846
0.392041 -0.514533 -0.154974 0.140490 0.069434 -0.987644
-0.148155 0.183692 -0.066930 -0.131421 0.990924 -0.028238
0.176924 -1.000500 0.180864 0.035739 -0.146502 0.988565
-0.013212 0.082275 0.162827 -0.000205 0.000124 1.000000
-0.036021 -0.914678 0.149885 -0.000015 -0.017193 0.999852
0.069019 0.214185 0.035152 0.905186 0.414548 -0.093740
0.246880 -0.539504 -0.129498 -0.000000 0.000000 -1.000000
-0.337854 -0.069969 -0.130999 -0.998207 -0.056676 -0.019228
0.445114 -0.748558 0.132825 0.877461 -0.440717 0.189288
0.077391 0.207999 0.111741 0.908647 0.416963 -0.022424
0.060746 -0.105272 -0.162827 -0.000000 0.000000 -1.000000
-0.218487 -0.823296 -0.162828 0.000000 0.000000 -1.000000
-0.079510 0.153201 -0.143947 -0.004803 0.017555 -0.999834
-0.380377 -0.687391 0.149627 -0.014922 -0.001957 0.999887
0.145410 -0.994140 -0.099871 0.081149 -0.996524 -0.018832
0.144188 0.135661 -0.161999 0.007742 0.013785 -0.999875
-0.275888 0.011551 0.149538 -0.019406 0.004372 0.999802
0.313806 -0.934856 0.092372 0.478879 -0.877511 0.025507
-0.442975 -0.746846 0.012495 -0.893646 -0.448773 -0.000000
-0.329984 -0.921691 -0.124880 -0.657881 -0.752921 -0.017396
0.128681 -0.735793 0.160601 0.000000 -0.000000 1.000000
-0.157984 -0.383480 0.150224 0.000000 0.000000 1.000000
0.352762 -0.137104 -0.017881 0.946457 -0.322830 0.000000
0.119317 0.188887 0.015264 0.139278 0.990180 -0.012050
-0.078496 0.848212 0.078855 -0.118797 -0.000137 -0.992919
0.093958 -0.003503 0.150224 0.000000 0.000000 1.000000
0.100096 -0.402826 0.149544 0.000000 -0.000000 1.000000
-0.119240 -0.306998 -0.162828 -0.000000 0.000000 -1.000000
0.022021 -0.260231 0.088576 0.000000 0.000000 1.000000
-0.015550 0.144485 0.162826 -0.000117 0.000000 1.000000
0.313063 -0.235728 -0.045125 0.998727 -0.046732 -0.018971
-0.181740 -0.804302 0.150224 -0.000000 0.000000 1.000000
-0.449673 -0.628286 -0.155815 -0.973599 0.167191 -0.155411
-0.061247 0.392226 0.143801 -0.999073 0.023387 0.036137
0.095774 -0.064136 -0.162828 -0.000000 -0.000000 -1.000000
-0.317233 -0.755118 0.150224 0.000000 -0.000000 1.000000
-0.131212 -0.583655 0.144742 0.000000 0.000000 1.000000
0.347166 -0.580342 -0.162566 0.015424 0.001893 -0.999879
-0.204983 0.174422 0.087694 -0.363318 0.931510 0.017008
0.048542 -0.081071 -0.162828 0.000000 0.000000 -1.000000
0.176848 -0.882709 -0.143664 0.000857 -0.017846 -0.999840
-0.405591 -0.713788 -0.161803 -0.014922 -0.001957 -0.999887
-0.336085 -0.143508 -0.040908 -0.946457 -0.322830 -0.000000
0.084071 0.891397 0.136621 0.192512 -0.000925 0.981294
0.152487 -0.037609 0.155829 0.000000 0.000000 1.000000
-0.348610 -0.906002 -0.099502 -0.657881 -0.752921 -0.017396
-0.049321 0.924883 0.152140 -0.027285 -0.000177 0.999628
-0.056268 0.874762 0.135452 -0.028536 0.000758 0.999592
-0.187996 0.177049 0.046900 -0.354162 0.935015 -0.017769
0.060939 0.896411 0.148019 -0.950509 -0.030425 0.309205
-0.179395 -0.165226 0.150230 0.000000 0.000000 1.000000
-0.332950 -0.096409 -0.154853 -0.987048 -0.059416 -0.149019
0.341814 -0.912820 -0.063397 0.658680 -0.752423 0.000009
0.103017 -0.755375 0.157209 0.015037 -0.567513 0.823227
-0.280106 0.121876 -0.178336 -0.766849 0.619646 -0.167274
-0.146141 -0.061012 0.150224 0.000000 0.000000 1.000000
-0.341732 -0.052952 0.082484 -0.998111 -0.055552 0.026253
-0.162055 -0.185603 0.150224 0.000000 0.000000 1.000000
-0.262801 0.147965 -0.083499 -0.337588 0.940939 -0.025842
-0.300832 -0.226637 -0.148507 -0.987990 -0.047008 -0.147197
0.063534 -0.710118 -0.162828 0.000000 0.000000 -1.000000
0.058272 -0.433535 0.150224 -0.000000 0.000000 1.000000
0.147619 0.180714 0.082765 0.143749 0.989462 0.017329
-0.101440 -0.024935 0.150224 0.000000 0.000000 1.000000
0.273481 -0.292470 0.147627 0.170428 0.060654 0.983502
0.132663 -0.995089 -0.102093 0.081149 -0.996524 -0.018832
0.439331 -0.607793 0.111049 0.961828 0.165860 0.217661
-0.310857 -0.343475 -0.160733 -0.159788 0.072509 -0.984485
0.277209 -0.201376 0.025307 0.970224 -0.242209 -0.000000
-0.238406 -0.784063 -0.162828 0.000000 0.000000 -1.000000
-0.343492 -0.008346 -0.134455 -0.968476 0.206448 -0.139404
-0.025569 0.214590 0.162826 -0.000079 0.000000 1.000000
0.389213 -0.558058 0.149700 0.015332 0.007577 0.999854
0.462271 -0.673006 0.090954 0.989195 -0.143556 0.029733
-0.029781 -0.626477 -0.162733 -0.000000 -0.000000 -1.000000
-0.228101 -0.555846 0.150224 -0.000000 -0.000000 1.000000
0.279771 -0.100764 0.168260 -0.000000 0.000000 1.000000
-0.197556 0.143954 -0.160975 -0.050504 0.112482 -0.992369
-0.059592 0.900116 0.085018 0.033173 -0.000295 -0.999450
-0.439436 -0.548877 0.061141 -0.883143 0.469104 0.000000
0.076104 0.607767 0.161478 0.041642 0.000521 0.999132
0.289801 -0.642572 -0.162828 0.000000 0.000000 -1.000000
-0.453911 -0.511351 -0.079996 -0.882998 0.469027 -0.018099
0.116361 -0.632077 -0.162828 0.000000 -0.000000 -1.000000
0.204981 -0.986514 0.130533 0.035739 -0.146502 0.988565
0.041167 -0.398995 0.150224 0.000000 0.000000 1.000000
-0.289989 -0.171505 -0.161298 -0.165169 -0.041378 -0.985397
-0.388231 -0.529432 0.149067 -0.015332 0.007578 0.999854
0.060705 -0.992643 0.032405 0.000000 -1.000000 -0.000000
0.145396 0.184586 -0.038740 0.131375 0.991169 -0.018002
-0.352036 -0.032573 -0.029100 -0.998455 -0.055572 -0.000000
0.355111 -0.897554 -0.144321 0.649794 -0.747986 -0.135221
-0.019024 -0.958188 -0.161741 -0.000025 -0.017181 -0.999852
-0.000623 0.949410 0.085894 -0.000000 -0.000000 -1.000000
0.223041 0.089874 -0.161664 0.023513 0.029857 -0.999278
0.257740 -0.696095 0.150224 -0.000000 0.000000 1.000000
-0.106948 -0.290718 0.141686 0.972933 0.231088 0.000000
-0.031075 0.328744 0.036487 -0.505726 0.297379 -0.809819
0.233113 0.172411 0.091442 0.363308 0.931514 0.017009
-0.140195 -0.371595 -0.162828 0.000000 0.000000 -1.000000
-0.344291 -0.903741 0.085679 -0.658489 -0.752224 0.023469
0.156081 -0.993880 -0.021492 0.081207 -0.996697 0.000000
0.057409 0.797069 0.144183 0.027059 0.000681 0.999634
0.311655 -0.522672 0.150224 -0.000000 0.000000 1.000000
0.109323 -0.997484 -0.077245 0.081193 -0.996520 -0.018884
-0.273445 -0.103949 -0.162299 -0.020543 -0.000844 -0.999789
-0.082854 -0.685490 0.179762 -0.000000 0.000000 1.000000
-0.337300 -0.101921 -0.003160 -0.998455 -0.055572 0.000000
-0.108715 -0.412075 0.150195 0.000000 0.000000 1.000000
0.450036 -0.759298 -0.036088 0.989633 -0.143620 0.000000
-0.011683 -0.654513 -0.164054 -0.000000 -0.000000 -1.000000
-0.049425 0.469127 0.161066 -0.039627 0.000963 0.999214
0.115665 -0.658566 -0.162832 0.000000 0.000000 -1.000000
0.452044 -0.745459 -0.059103 0.989633 -0.143620 0.000000
-0.028448 0.942269 0.079736 0.010307 -0.001650 -0.999946
-0.145538 -0.719017 -0.162828 0.000000 0.000000 -1.000000
0.055819 0.356495 0.075157 0.961028 0.071764 -0.266974
0.009244 0.165018 0.162827 0.000117 0.000000 1.000000
0.210339 0.004032 -0.162809 0.000000 0.000000 -1.000000
0.367621 -0.838755 -0.161808 0.016224 -0.007514 -0.999840
0.426182 -0.508951 0.024717 0.883143 0.469104 0.000000
0.002868 -0.281709 -0.162828 0.000000 0.000000 -1.000000
-0.286146 -0.824002 -0.164583 0.000000 -0.000000 -1.000000
0.128245 -0.755231 0.156897 0.007313 -0.595175 0.803563
-0.400769 -0.477835 0.143185 -0.867920 0.459846 0.187770
0.316673 -0.168083 0.005152 0.946457 -0.322830 0.000000
-0.114254 -0.656640 0.148808 0.000000 0.000000 1.000000
-0.295481 -0.285014 -0.159402 -0.170429 0.060657 -0.983501
0.112180 -0.761469 -0.130645 0.000000 0.000000 -1.000000
0.404771 -0.485928 -0.126041 0.883131 0.468798 -0.017539
0.102819 -0.055952 -0.163170 -0.000000 -0.000000 -1.000000
-0.225201 -0.978006 0.041820 -0.236775 -0.971565 -0.000000
-0.094232 0.021505 -0.142577 -0.000000 -0.000000 -1.000000
0.367326 -0.889764 0.100664 0.658499 -0.752216 0.023455
-0.290201 -0.740597 0.134258 0.000000 -0.000000 1.000000
-0.228950 -0.632860 0.150224 0.000000 0.000000 1.000000
-0.343111 -0.122840 0.091186 -0.946114 -0.322714 0.026906
0.002864 0.538404 0.074075 -0.000000 0.129039 -0.991639
-0.196430 -0.776306 0.150260 -0.000000 0.000000 1.000000
-0.100862 -0.998379 0.057891 -0.081207 -0.996697 -0.000000
0.268541 -0.959296 -0.099968 0.478712 -0.877809 -0.016906
0.112936 -0.422793 0.150224 0.000000 0.000000 1.000000
0.315122 -0.149645 -0.056755 0.970224 -0.242209 0.000000
0.222631 -0.277269 0.150224 -0.000000 0.000000 1.000000
0.432270 -0.715378 -0.061333 0.989633 -0.143620 0.000000
0.103978 -0.264003 0.137653 -0.758991 0.651102 0.000000
0.040931 0.065234 -0.160934 -0.000000 0.000000 -1.000000
0.094192 -0.295590 -0.162828 -0.000000 -0.000000 -1.000000
0.303968 -0.039105 0.149248 0.019314 -0.000934 0.999813
0.230138 0.039553 0.150224 0.000000 0.000000 1.000000
0.040204 -0.051288 0.162658 0.000000 0.000000 1.000000
-0.303008 -0.779842 -0.162828 0.000000 0.000000 -1.000000
0.045291 -0.224251 -0.158180 0.000000 0.000000 -1.000000
0.318262 0.078169 -0.085688 0.791919 0.610367 -0.017763
-0.254714 -0.125445 0.154444 -0.021947 -0.005576 0.999744
0.237286 -0.567381 -0.162828 0.000000 -0.000000 -1.000000
-0.451759 -0.750634 -0.056796 -0.989633 -0.143620 0.000000
0.050349 -0.407527 0.150224 0.000000 0.000000 1.000000
0.350035 -0.891259 -0.035232 0.658680 -0.752423 0.000009
0.095019 -0.715137 0.153651 -0.001617 0.579146 0.815222
-0.340398 -0.024567 -0.121104 -0.998297 -0.055563 -0.017769
-0.258572 -0.348692 0.149987 -0.021359 0.007752 0.999742
-0.348995 -0.662417 0.121123 -0.015424 0.001893 0.999879
-0.240648 -0.417319 -0.162828 -0.000000 -0.000000 -1.000000
0.324702 -0.127358 0.141536 0.929513 -0.315433 0.191071
-0.026635 0.763446 0.151186 0.000000 -0.000000 1.000000
-0.429158 -0.673474 0.055006 -0.989633 -0.143620 -0.000000
-0.193630 -0.624242 0.150224 0.000000 0.000000 1.000000
-0.051678 0.140412 0.162819 -0.000234 -0.000074 1.000000
0.235393 -0.975522 0.020903 0.236775 -0.971565 0.000000
-0.010997 0.480825 0.161755 -0.000093 -0.000000 1.000000
-0.185524 -0.985484 0.131578 -0.232465 -0.953659 0.191036
0.052469 0.231484 -0.104223 0.922024 0.345441 -0.174764
-0.215615 -0.824098 0.150224 -0.000000 0.000000 1.000000
-0.057267 0.523000 0.108002 -0.951335 0.051954 -0.303746
-0.275053 -0.271901 -0.161651 -0.021359 0.007602 -0.999743
-0.156548 -0.496800 -0.162826 0.000000 0.000000 -1.000000
-0.401091 -0.482257 0.134004 -0.866583 0.460014 0.193445
-0.337495 -0.069951 0.034138 -0.998455 -0.055572 0.000000
-0.330455 -0.124914 -0.114096 -0.946300 -0.322777 -0.018228
-0.248083 -0.278397 -0.162840 -0.022991 0.006556 -0.999714
-0.030122 0.436994 0.061544 -0.424535 0.124295 -0.896839
0.029368 -0.007977 -0.182305 -0.000000 0.000000 -1.000000
0.441629 -0.574234 0.144692 0.962801 0.165336 0.213724
-0.285763 -0.408315 0.147839 0.000000 0.000000 1.000000
-0.185357 -0.291647 -0.162828 -0.000000 0.000000 -1.000000
-0.275273 -0.608230 -0.129615 -0.000000 0.000000 -1.000000
0.009404 -0.205195 0.121856 -0.000000 0.000000 1.000000
-0.202195 -0.861766 0.135090 -0.000000 0.000000 1.000000
0.087330 0.032404 0.150224 0.000000 -0.000000 1.000000
-0.227183 -0.322248 -0.162942 -0.000000 -0.000000 -1.000000
-0.458717 -0.642184 0.051125 -0.985417 0.170159 -0.000000
0.439347 -0.624970 -0.162626 0.121263 0.019231 -0.992434
-0.036806 -0.850682 -0.162828 0.000000 0.000000 -1.000000
-0.178442 0.181018 -0.117998 -0.323031 0.945208 -0.047257
-0.200805 -0.537398 0.150224 -0.000000 -0.000000 1.000000
0.014643 -0.461672 -0.162841 -0.000000 0.000000 -1.000000
0.316258 -0.526164 0.150193 0.018277 0.007157 0.999807
0.055090 0.168650 -0.084836 0.922024 0.345441 -0.174764
-0.117907 -0.198413 0.125971 0.967521 -0.252792 0.000000
0.071675 0.107692 -0.162677 -0.000000 0.000000 -1.000000
-0.063076 0.282761 0.110411 -0.999558 0.008125 -0.028585
-0.083663 0.888703 0.067612 0.053746 0.000248 -0.998555
0.117184 0.079707 -0.162828 -0.000000 0.000000 -1.000000
-0.347910 -0.360154 -0.065020 -0.900360 0.435145 0.000000
0.346517 -0.369627 -0.100241 0.900175 0.435155 -0.018039
0.444778 -0.566247 -0.037763 0.985417 0.170159 -0.000000
-0.450007 -0.759496 0.028450 -0.989633 -0.143620 0.000000
-0.000957 1.023343 0.089888 -0.003140 0.991415 -0.130713
-0.017228 0.223116 -0.158854 -0.069162 0.692447 -0.718146
-0.063593 0.288141 0.130422 -0.999690 0.007771 0.023654
-0.002247 0.946510 0.085894 -0.000000 -0.000000 -1.000000
0.129435 -1.012447 0.146517 0.011051 -0.135910 0.990659
-0.426635 -0.524777 0.050306 -0.883143 0.469104 0.000000
0.416626 -0.826680 0.038328 0.893642 -0.448781 -0.000000
-0.442077 -0.714676 -0.158924 -0.117976 -0.016938 -0.992872
0.013228 0.353216 0.071498 0.000000 0.340050 -0.940407
-0.165556 0.081038 0.150224 -0.000000 0.000000 1.000000
-0.248099 -0.649033 0.154428 0.000000 0.000000 1.000000
0.203770 -0.583920 0.150224 0.000000 0.000000 1.000000
0.111146 -0.618187 -0.162821 0.000000 0.000000 -1.000000
0.319204 -0.160662 -0.044562 0.946457 -0.322830 0.000000
-0.051947 0.587202 0.161492 -0.042422 0.000303 0.999100
0.228584 0.161830 -0.018430 0.354209 0.935140 -0.007062
-0.138120 -0.983281 -0.086077 -0.081193 -0.996520 -0.018884
-0.093811 0.190577 -0.076237 -0.125460 0.991475 -0.035164
0.156260 -0.990117 -0.100488 0.236737 -0.971410 -0.017852
-0.241211 0.156852 0.126103 -0.366822 0.929969 0.024499
0.062027 -0.547414 -0.163780 0.000000 0.000000 -1.000000
-0.460040 -0.690360 0.005056 -0.989633 -0.143620 -0.000000
-0.340029 -0.637118 0.150254 -0.015424 0.001893 0.999879
-0.280241 -0.249631 0.148364 -0.170737 -0.008278 0.985282
0.428369 -0.870499 -0.129475 0.893475 -0.448760 -0.017784
-0.098423 -0.998578 0.064764 -0.081207 -0.996697 -0.000000
0.028104 -0.592265 0.153049 0.000000 0.000000 1.000000
-0.129922 -0.031436 0.150224 0.000000 0.000000 1.000000
-0.284983 -0.053076 0.182478 -0.019314 -0.000934 0.999813
0.226043 -0.200330 -0.162828 0.000000 0.000000 -1.000000
-0.288432 -0.505097 -0.162831 -0.000000 -0.000000 -1.000000
0.043333 -0.126837 -0.162828 0.000000 0.000000 -1.000000
-0.071440 0.259925 0.162231 -0.045729 0.000367 0.998954
-0.221069 -0.681455 -0.162828 -0.000000 0.000000 -1.000000
0.064580 -0.514453 -0.129876 0.000000 0.000000 -1.000000
0.376344 -0.882470 0.021460 0.658675 -0.752428 0.000000
0.447035 -0.582298 0.126787 0.985023 0.169860 0.029636
0.427627 -0.551962 -0.158816 0.120333 0.063755 -0.990684
-0.328605 -0.133517 0.002899 -0.946457 -0.322830 -0.000000
0.170042 -0.914779 0.149806 0.000857 -0.017846 0.999840
-0.304045 -0.234021 0.068973 -0.998515 -0.046722 0.028001
-0.072575 0.151478 0.149335 -0.004306 0.019756 0.999795
-0.054324 -0.472463 -0.162814 -0.000000 -0.000000 -1.000000
0.193343 -0.553470 -0.162828 -0.000000 0.000000 -1.000000
-0.195703 -0.640025 -0.182574 0.000000 0.000000 -1.000000
-0.217948 -0.033379 -0.162828 -0.000000 0.000000 -1.000000
0.207235 -0.653664 -0.162880 0.000000 0.000000 -1.000000
-0.193846 -0.681622 -0.162828 -0.000000 0.000000 -1.000000
-0.320918 0.049734 0.145044 -0.959783 0.204640 0.192198
-0.266953 -0.707826 -0.162828 -0.000000 0.000000 -1.000000
-0.034264 0.591668 0.092528 -0.999111 0.012237 -0.040349
0.455775 -0.625146 0.022604 0.985417 0.170159 0.000000
0.089235 -0.114994 0.130477 -0.711880 -0.657704 0.246277
0.072486 -0.344875 0.150224 0.000000 0.000000 1.000000
-0.098953 -0.800910 -0.162828 -0.000000 0.000000 -1.000000
0.330268 -0.382394 -0.160449 0.159781 0.072508 -0.984486
0.246734 -0.952403 -0.175448 0.474880 -0.870183 -0.131419
0.303702 -0.230565 0.104964 0.998515 -0.046722 0.028001
-0.325465 -0.947733 -0.143124 -0.657881 -0.752921 -0.017396
-0.327189 -0.893173 -0.161193 -0.026517 -0.048461 -0.998473
0.116017 0.212141 0.127881 0.143696 0.973014 0.180540
-0.454197 -0.730621 -0.046582 -0.989633 -0.143620 0.000000
0.061101 0.409815 0.141935 0.999082 0.023201 -0.036006
0.077392 0.151870 0.149307 0.004306 0.019756 0.999795
0.348038 -0.840992 0.148494 0.018367 -0.006453 0.999811
-0.353637 -0.383938 -0.090065 -0.900216 0.435076 -0.017878
0.382034 -0.750198 0.161682 0.015489 -0.001535 0.999879
-0.303714 -0.244416 0.012261 -0.998907 -0.046740 -0.000000
0.250415 -0.902154 -0.162430 0.003080 -0.020412 -0.999787
0.303377 -0.647838 0.150224 -0.000000 0.000000 1.000000
0.063143 0.881775 0.150264 -0.953080 -0.030486 0.301180
-0.229350 -0.976557 -0.088959 -0.236788 -0.971396 -0.017917
0.065318 0.522213 0.086834 0.943689 0.042027 -0.328153
0.082066 -0.824919 -0.162828 0.000000 0.000000 -1.000000
0.008517 -0.579032 0.155123 0.000000 -0.000000 1.000000
0.296002 -0.413866 -0.162343 0.018277 0.008294 -0.999799
-0.058812 -0.443290 -0.143116 -0.000000 -0.000000 -1.000000
0.329364 0.035523 -0.079637 0.977454 0.210443 -0.017234
-0.097730 -0.937165 -0.178650 -0.000015 -0.017193 -0.999852
0.066697 0.031092 -0.162828 -0.000000 0.000000 -1.000000
0.084902 -0.656037 0.150209 0.000000 0.000000 1.000000
-0.092314 0.192449 -0.024149 -0.244228 0.969121 -0.034016
-0.147188 -0.969931 0.158192 -0.079498 -0.976238 0.201590
-0.059986 -0.657410 -0.162828 -0.000000 -0.000000 -1.000000
-0.082807 -0.640700 -0.194253 -0.000000 -0.000000 -1.000000
-0.301797 -0.264263 -0.115617 -0.998679 -0.047517 -0.019581
-0.030158 0.991850 0.091247 -0.544020 0.838824 0.020390
0.032550 -1.000000 0.005294 -0.000000 -1.000000 -0.000000
0.072460 -0.139372 -0.169706 0.000000 0.000000 -1.000000
0.210489 -0.493707 -0.162828 -0.000000 0.000000 -1.000000
-0.235882 -0.638040 0.182042 0.000000 0.000000 1.000000
-0.084529 -0.425812 0.150224 0.000000 -0.000000 1.000000
0.352657 -0.018013 -0.155752 0.968476 0.206448 -0.139404
-0.032457 0.134223 -0.162828 -0.000000 -0.000000 -1.000000
0.286052 -0.848652 0.153377 0.000000 0.000000 1.000000
0.115956 -0.538357 0.150224 0.000000 -0.000000 1.000000
0.037825 0.529209 0.161497 0.041642 0.000561 0.999132
0.062373 0.961943 0.085681 0.683841 0.714779 -0.146466
-0.277061 0.048487 -0.177972 -0.016597 0.005671 -0.999846
-0.373162 -0.433005 0.142478 -0.867920 0.459846 0.187770
-0.138000 -0.218305 0.136884 0.000000 0.000000 1.000000
0.077933 -0.273700 -0.162828 0.000000 0.000000 -1.000000
0.273339 -0.195902 -0.162070 0.021947 -0.005165 -0.999746
-0.328070 -0.119816 -0.157314 -0.937816 -0.318251 -0.138626
-0.316714 -0.400461 -0.162036 -0.018277 0.008294 -0.999799
0.348721 -0.471455 -0.161837 0.015332 0.007577 -0.999854
-0.460086 -0.711861 0.077184 -0.989633 -0.143620 0.000000
0.036053 -0.121043 -0.162828 0.000000 0.000000 -1.000000
0.072882 -0.997230 0.133953 0.001017 -0.978808 0.204777
-0.093881 0.192772 -0.003701 -0.244228 0.969121 -0.034016
0.455271 -0.716257 -0.117320 0.989497 -0.143220 -0.019584
0.371613 -0.420109 -0.023449 0.900360 0.435145 0.000000
0.089262 -0.390847 -0.162895 0.000000 0.000000 -1.000000
-0.393865 -0.463085 -0.017393 -0.883143 0.469104 -0.000000
0.082035 -1.000070 0.023610 -0.000000 -1.000000 -0.000000
0.453614 -0.715053 -0.141568 0.977578 -0.141495 -0.155953
0.424743 -0.598872 0.069920 0.985417 0.170159 -0.000000
0.093115 -0.235955 -0.162828 0.000000 0.000000 -1.000000
-0.406928 -0.851126 -0.012208 -0.893646 -0.448773 -0.000000
-0.316770 0.080960 0.038666 -0.805043 0.593216 0.000000
-0.105695 0.041297 -0.158024 0.000000 0.000000 -1.000000
0.126032 -0.996329 -0.003035 0.081207 -0.996697 0.000000
0.005272 0.062891 0.196019 0.000205 0.000124 1.000000
-0.351171 -0.901213 -0.143013 -0.649794 -0.747986 -0.135221
-0.088391 0.190542 -0.133328 -0.217649 0.974309 -0.057892
0.040590 0.165927 0.162823 0.000117 0.000000 1.000000
-0.128104 -0.801700 0.170610 0.000000 0.000000 1.000000
-0.359732 -0.395526 -0.039120 -0.900360 0.435145 0.000000
0.452967 -0.735244 -0.118142 0.989497 -0.143220 -0.019584
0.334842 0.010575 -0.073582 0.977454 0.210443 -0.017234
0.325751 -0.110661 -0.158955 0.156015 -0.006409 -0.987734
-0.173371 0.052831 0.150224 -0.000000 0.000000 1.000000
0.299284 0.104175 -0.024155 0.800612 0.599184 -0.000000
-0.203878 -0.546358 -0.162828 0.000000 0.000000 -1.000000
-0.270059 -0.134563 -0.162194 -0.021947 -0.005576 -0.999744
0.338241 -0.915826 -0.035154 0.658680 -0.752423 0.000009
0.009253 0.052920 -0.162828 -0.000000 0.000000 -1.000000
0.347301 -0.408769 -0.159769 0.140505 0.067971 -0.987744
-0.050101 0.269177 0.024777 -0.985743 0.085137 -0.145131
0.337568 -0.815071 -0.162497 0.018367 -0.006453 -0.999811
-0.304168 -0.265150 0.008360 -0.998907 -0.046740 -0.000000
0.044043 0.429673 0.161316 0.039627 0.000528 0.999214
-0.317363 -0.156320 0.114169 -0.155800 -0.052871 0.986373
-0.136803 -0.011308 0.150224 0.000000 -0.000000 1.000000
-0.241602 -0.253615 0.149517 -0.022992 -0.000878 0.999735
0.124825 -0.996427 -0.038228 0.081207 -0.996697 0.000000
-0.009216 -0.573344 -0.162844 -0.000000 -0.000000 -1.000000
0.020185 0.881083 0.085894 0.000000 0.000000 -1.000000
0.212202 -0.813199 0.152423 0.000000 0.000000 1.000000
-0.126937 -0.379963 0.150224 0.000000 0.000000 1.000000
0.164254 -0.258690 0.147172 0.000000 0.000000 1.000000
0.310622 -0.386479 0.149244 0.018277 0.008294 0.999799
-0.101891 0.069690 0.178370 -0.000000 0.000000 1.000000
0.260476 -0.732031 -0.162828 0.000000 0.000000 -1.000000
-0.174828 -0.336172 0.133804 0.000000 0.000000 1.000000
0.061863 0.688843 0.128726 0.715462 -0.698651 -0.000842
0.331198 0.058552 -0.045384 0.977599 0.210474 -0.000000
0.374050 -0.425152 0.040138 0.900360 0.435145 0.000000
0.087434 -0.487488 0.160911 -0.000000 0.000000 1.000000
-0.014917 -0.149389 -0.162828 -0.000000 -0.000000 -1.000000
-0.285152 -0.965788 -0.029724 -0.478790 -0.877930 -0.000000
0.053053 -0.488054 -0.162828 -0.000000 0.000000 -1.000000
-0.151911 -0.450543 -0.162783 0.000000 0.000000 -1.000000
-0.271330 -0.114911 0.149695 -0.020543 -0.006516 0.999768
0.206895 -0.202902 0.155724 0.000000 0.000000 1.000000
-0.200237 -0.982609 0.128023 -0.232465 -0.953659 0.191036
-0.064236 -0.469020 0.150210 -0.000000 0.000000 1.000000
-0.340101 -0.913859 -0.081172 -0.658587 -0.752336 -0.015899
0.213941 -0.060902 -0.162896 0.000000 0.000000 -1.000000
0.338857 -0.073957 0.044798 0.998455 -0.055572 -0.000000
-0.447630 -0.795618 -0.091563 -0.893506 -0.448702 -0.017698
0.224534 -0.650611 -0.162828 0.000000 0.000000 -1.000000
-0.435807 -0.526681 -0.038949 -0.883143 0.469104 0.000000
0.285421 -0.006326 0.149434 0.019406 0.004372 0.999802
0.420747 -0.788367 -0.116808 0.893475 -0.448760 -0.017784
-0.307034 0.087256 0.141756 -0.789976 0.582890 0.190205
-0.084491 0.183042 0.095943 -0.250589 0.968006 0.013025
-0.006732 -0.862559 0.150224 0.000000 -0.000000 1.000000
-0.264251 0.147934 -0.014877 -0.354209 0.935140 -0.007062
0.401624 -0.574641 0.149113 0.014659 0.002325 0.999890
0.227814 -0.977201 -0.067428 0.236737 -0.971410 -0.017852
-0.005287 -0.470490 0.150224 -0.000000 0.000000 1.000000
-0.169691 -0.931945 -0.161835 -0.000857 -0.017846 -0.999840
0.373629 -0.883762 -0.115933 0.657881 -0.752921 -0.017408
-0.429965 -0.506379 -0.140769 -0.874521 0.464227 -0.140380
-0.347671 -0.551137 -0.162457 -0.015332 0.007577 -0.999854
-0.399899 -0.883841 -0.113915 -0.657881 -0.752921 -0.017396
-0.012612 -0.187233 0.121856 -0.000000 0.000000 1.000000
0.313338 -0.473779 0.140903 0.018277 0.007157 0.999807
-0.231782 -0.699037 0.150224 0.000000 0.000000 1.000000
0.333032 -0.343398 0.136413 0.883288 0.427302 0.192913
0.312361 -0.290583 -0.014246 0.933899 0.357536 0.000000
-0.224914 0.161367 -0.158246 -0.053324 0.158772 -0.985874
-0.255154 -0.965914 0.125062 -0.478879 -0.877511 0.025487
-0.490700 -0.702359 0.091325 -0.989273 -0.143188 0.028906
-0.133689 -0.884439 -0.162828 0.000000 0.000000 -1.000000
-0.288187 -0.022259 -0.162089 -0.018780 0.000456 -0.999824
-0.460341 -0.688290 0.078744 -0.989633 -0.143620 0.000000
0.160551 -0.099529 0.118357 -0.000000 0.000000 1.000000
0.297300 0.103018 -0.132797 0.775771 0.615846 -0.137526
0.127196 -0.863998 0.149622 0.000000 0.000000 1.000000
0.247010 -0.971410 -0.075074 0.478712 -0.877809 -0.016906
0.024119 0.424703 0.062019 -0.000000 0.132446 -0.991190
0.392426 -0.867426 -0.110951 0.658597 -0.752328 -0.015890
0.442346 -0.796381 0.047781 0.893642 -0.448781 0.000000
-0.329096 -0.341026 -0.151039 -0.891333 0.431194 -0.139987
-0.329053 -0.826779 -0.169095 -0.018367 -0.006453 -0.999811
0.170731 -0.091936 -0.162828 0.000000 -0.000000 -1.000000
0.197028 -0.983757 0.115143 0.236693 -0.971227 0.026350
-0.274510 -0.769858 0.150224 0.000000 0.000000 1.000000
0.213924 -0.530936 -0.193917 -0.000000 0.000000 -1.000000
0.103747 -0.662059 -0.162828 0.000000 0.000000 -1.000000
-0.325882 -0.507657 0.148591 -0.018277 0.007157 0.999807
0.076363 0.011828 0.150224 0.000000 -0.000000 1.000000
-0.335899 -0.351130 -0.032955 -0.900360 0.435145 0.000000
0.043758 -0.637003 -0.162828 0.000000 0.000000 -1.000000
-0.168640 -0.794792 -0.169190 0.000000 0.000000 -1.000000
-0.062882 0.289427 0.105525 -0.999558 0.008125 -0.028585
0.079036 -0.759835 -0.187989 0.000000 0.000000 -1.000000
0.182633 -0.365843 0.150224 -0.000000 0.000000 1.000000
0.051535 -0.445125 0.149786 -0.000000 0.000000 1.000000
0.303229 -0.219048 0.128700 0.978143 -0.046540 0.202657
-0.018405 0.256134 -0.065338 0.000000 0.983842 -0.179039
0.116370 -0.306639 -0.162828 -0.000000 -0.000000 -1.000000
0.338940 -0.920862 0.089972 0.657763 -0.752786 0.025695
-0.241985 0.132114 0.147918 -0.058996 0.114024 0.991725
0.183980 -0.731424 0.153265 0.000000 0.000000 1.000000
0.036141 -0.075904 -0.162828 0.000000 0.000000 -1.000000
0.304429 0.007416 -0.084308 0.977599 0.210474 0.000000
0.421630 -0.517488 0.119049 0.882971 0.468713 0.025888
0.279168 0.127162 -0.008414 0.791944 0.610386 -0.015937
-0.048821 0.211208 -0.096956 -0.924430 0.322919 -0.202863
-0.063704 0.946724 0.149915 -0.095589 0.005106 0.995408
-0.289671 0.007605 -0.161863 -0.018853 0.004626 -0.999812
-0.302465 -0.774897 0.150133 0.000000 -0.000000 1.000000
-0.281577 -0.947911 -0.155344 -0.475454 -0.869440 -0.134231
0.346481 -0.813577 0.135690 0.016224 -0.007514 0.999840
0.015229 0.731275 0.151186 0.000000 0.000000 1.000000
0.110437 -0.083448 -0.154118 -0.000000 -0.000000 -1.000000
0.026838 -0.979433 -0.159948 0.000140 -0.134413 -0.990925
0.039956 0.376761 0.177995 0.038799 0.014658 0.999140
-0.272246 -0.176911 0.149304 -0.021947 -0.005165 0.999746
-0.317743 -0.219219 -0.004520 -0.998907 -0.046740 -0.000000
-0.048235 -0.431392 0.150224 0.000000 -0.000000 1.000000
0.390738 -0.844303 0.116130 0.144150 -0.066761 0.987301
0.128871 -0.314860 -0.162828 -0.000000 -0.000000 -1.000000
-0.026199 0.227185 0.162826 -0.000079 0.000007 1.000000
0.320440 -0.777714 0.150224 0.000000 -0.000000 1.000000
-0.085898 -0.466127 0.165644 -0.000000 0.000000 1.000000
-0.049914 -0.969406 -0.161303 -0.000196 -0.134247 -0.990948
0.058418 0.369820 0.083720 0.961028 0.071764 -0.266974
-0.147343 -0.755018 -0.162828 0.000000 0.000000 -1.000000
-0.224807 -0.026525 0.150456 0.000000 0.000000 1.000000
0.087693 0.878379 0.100484 0.759992 -0.644480 -0.084005
-0.003756 -0.341355 0.150224 0.000000 -0.000000 1.000000
-0.023164 0.326985 0.034766 0.000000 0.340050 -0.940407
0.064660 -0.746479 -0.162852 0.000000 0.000000 -1.000000
-0.085048 -0.208411 0.121856 0.000000 -0.000000 1.000000
-0.186532 -0.957136 0.058100 -0.236775 -0.971565 0.000000
0.335801 0.005736 -0.078328 0.977454 0.210443 -0.017234
-0.299259 0.108993 0.029490 -0.805043 0.593216 0.000000
0.293592 -0.384033 0.149535 0.018277 0.008294 0.999799
-0.454800 -0.720436 0.086856 -0.989633 -0.143620 0.000000
-0.234996 0.158480 -0.063897 -0.337578 0.940913 -0.026892
0.286244 -0.212782 0.144193 0.976772 -0.048709 0.208672
-0.373093 -0.464333 -0.159972 -0.140490 0.069434 -0.987644
-0.154391 -0.726381 -0.173275 0.000000 0.000000 -1.000000
-0.181429 -0.152040 0.150224 0.000000 0.000000 1.000000
0.192365 -0.355108 -0.152408 0.000000 -0.000000 -1.000000
-0.154223 -0.134068 0.150224 0.000000 -0.000000 1.000000
0.315400 0.111896 0.127785 0.789976 0.582890 0.190205
-0.087323 -0.709893 0.150224 0.000000 0.000000 1.000000
-0.437472 -0.553756 -0.146974 -0.874521 0.464227 -0.140380
0.278683 -0.954327 0.008513 0.478790 -0.877930 -0.000000
-0.023516 0.284274 -0.013126 -0.604308 0.423844 -0.674662
-0.238978 -0.974648 0.072449 -0.236775 -0.971565 -0.000000
0.288850 -0.850857 -0.162828 0.000000 0.000000 -1.000000
-0.341765 -0.020888 0.016583 -0.977600 0.210474 0.000000
-0.062048 -1.001013 0.038571 0.000000 -1.000000 0.000000
0.080789 0.114207 0.150029 0.005194 0.018944 0.999807
-0.383792 -0.430776 0.020520 -0.883143 0.469104 -0.000000
0.186998 -0.456508 0.150224 0.000000 0.000000 1.000000
0.026768 0.456730 0.074988 -0.000000 0.132446 -0.991190
0.348620 -0.735684 0.150028 0.015489 -0.001535 0.999879
0.062447 0.291794 0.090530 0.999564 0.008389 -0.028318
0.411587 -0.839411 -0.125675 0.893475 -0.448760 -0.017784
0.021160 0.241936 -0.030062 0.951638 0.291936 -0.095698
-0.063274 0.287111 0.118575 -0.999558 0.008125 -0.028585
0.110433 -0.267996 0.140975 -0.972933 0.231088 0.000000
-0.159115 0.182055 -0.073349 -0.131421 0.990924 -0.028238
-0.371007 -0.090913 0.069267 -0.998455 -0.055572 -0.000000
0.363220 -0.880229 0.146700 0.156698 -0.180377 0.971036
-0.065764 0.194229 -0.130887 -0.217649 0.974309 -0.057892
0.328213 0.040627 -0.082611 0.977454 0.210443 -0.017234
-0.401713 -0.479335 0.068719 -0.883143 0.469104 0.000000
0.127005 -0.993632 -0.141276 0.080289 -0.985961 -0.146406
0.417836 -0.793074 -0.078794 0.893502 -0.448710 -0.017698
-0.034944 0.788229 0.085754 0.011102 -0.000172 -0.999938
0.079970 -0.586222 -0.144726 0.000000 0.000000 -1.000000
0.128029 -0.996166 0.060806 0.081207 -0.996697 0.000000
-0.030110 -0.697147 -0.162831 -0.000000 0.000000 -1.000000
-0.421147 -0.816497 0.135225 -0.877461 -0.440717 0.189288
-0.444774 -0.808065 -0.062447 -0.893646 -0.448773 -0.000000
0.175830 -0.990038 -0.056705 0.236775 -0.971565 0.000000
0.450147 -0.754087 -0.097561 0.989497 -0.143220 -0.019584
-0.323291 -0.608089 -0.162828 -0.000000 -0.000000 -1.000000
0.032727 -0.096457 -0.143116 0.000000 0.000000 -1.000000
-0.321220 0.073185 -0.081657 -0.977454 0.210443 -0.017234
-0.199417 -0.983703 -0.075746 -0.236737 -0.971410 -0.017852
0.066671 -0.020810 0.153598 0.999666 -0.000000 -0.025856
0.313151 -0.172717 0.133215 0.951446 -0.237696 0.195580
0.352274 -0.800127 0.149743 0.016224 -0.007514 0.999840
-0.230781 -0.674659 0.122216 0.000000 0.000000 1.000000
0.019569 -0.569138 -0.162828 0.000000 -0.000000 -1.000000
0.256061 -0.577334 0.150226 -0.000000 0.000000 1.000000
-0.298285 0.078119 0.147363 -0.142304 0.105000 0.984238
-0.276940 -0.620163 -0.162819 -0.000000 -0.000000 -1.000000
0.213236 0.164162 0.144345 0.360799 0.912775 0.191482
-0.192042 0.184905 -0.138090 -0.319862 0.935937 -0.147344
-0.262619 -0.868748 0.150224 0.000000 0.000000 1.000000
-0.113693 -0.348537 -0.162730 0.000000 0.000000 -1.000000
-0.434111 -0.624011 0.147103 -0.115728 0.019873 0.993082
-0.229758 0.120278 0.075832 -0.363367 0.931635 -0.004549
-0.114486 -0.227268 0.144034 0.972933 0.231088 -0.000000
0.101893 -0.998037 -0.086369 0.081193 -0.996520 -0.018884
0.063149 0.245517 0.072064 0.974412 0.170190 -0.146825
-0.302188 -0.112661 -0.120830 -0.946300 -0.322777 -0.018228
-0.287473 -0.344057 -0.161937 -0.021359 0.007752 -0.999742
-0.215955 0.154206 -0.136274 -0.319862 0.935937 -0.147344
0.318252 -0.026044 0.148042 0.149656 -0.009001 0.988697
-0.051146 0.217425 0.160012 -0.042195 -0.000371 0.999109
0.144747 -0.060853 -0.162828 -0.000000 -0.000000 -1.000000
-0.273943 -0.087276 0.149806 -0.020543 -0.000094 0.999789
-0.339549 -0.356014 -0.119550 -0.900175 0.435155 -0.018039
-0.105834 -0.239691 0.150393 0.000000 0.000000 1.000000
-0.066162 0.222769 0.043512 -0.917725 0.387814 -0.085914
0.357753 -0.391684 0.056667 0.900360 0.435145 -0.000000
-0.200110 -0.763158 0.150224 -0.000000 0.000000 1.000000
-0.191217 0.156104 -0.155006 -0.023513 0.029857 -0.999278
0.397014 -0.469013 0.056178 0.883143 0.469104 0.000000
0.069055 -0.584515 -0.161929 0.000000 0.000000 -1.000000
-0.235536 -0.135023 -0.162828 -0.000000 0.000000 -1.000000
0.090109 0.191268 0.105992 0.251650 0.967566 -0.022094
-0.084571 0.104654 0.150191 -0.005194 0.018944 0.999807
-0.339885 -0.060525 0.121994 -0.997991 -0.056651 0.028381
0.101449 -0.224080 0.121856 0.000000 0.000000 1.000000
0.319439 0.050355 0.012576 0.805047 0.593211 -0.000000
-0.199586 -0.062881 -0.162828 -0.000000 0.000000 -1.000000
-0.342806 -0.600123 -0.162757 -0.000000 -0.000000 -1.000000
-0.017750 0.505053 0.161753 -0.000093 0.000001 1.000000
0.158516 0.178312 -0.145378 0.125706 0.982194 -0.139615
-0.045734 -1.000000 0.071561 0.000000 -1.000000 0.000000
0.309068 -0.880246 -0.193720 0.000000 0.000000 -1.000000
-0.102700 -0.997057 -0.127080 -0.081149 -0.996524 -0.018832
-0.065793 -0.488953 -0.162823 -0.000000 -0.000000 -1.000000
-0.280648 0.047990 -0.161846 -0.018853 0.004626 -0.999812
-0.024904 0.746478 0.154582 -0.053852 -0.006211 0.998530
-0.286871 -0.167494 -0.161636 -0.020543 -0.006516 -0.999768
0.183664 -0.570501 0.182106 0.000000 -0.000000 1.000000
-0.165642 -0.466317 -0.162828 0.000000 0.000000 -1.000000
0.379318 -0.528815 -0.161240 0.015332 0.007577 -0.999854
0.428290 -0.593128 -0.159804 0.121263 0.019231 -0.992434
-0.088423 -0.994711 -0.140522 -0.080289 -0.985961 -0.146406
-0.415136 -0.505686 -0.132201 -0.874521 0.464227 -0.140380
0.231030 0.152045 0.032382 0.354209 0.935140 -0.007062
0.462559 -0.664431 0.075305 0.985417 0.170159 0.000000
-0.064025 0.817714 0.143581 0.953026 -0.031711 0.301224
0.433048 -0.797450 -0.106278 0.893502 -0.448710 -0.017698
-0.010414 -0.441556 0.117999 -0.000000 0.000000 1.000000
-0.076672 0.010590 -0.162828 0.000000 0.000000 -1.000000
0.432327 -0.646885 -0.171695 0.117976 -0.016938 -0.992872
-0.181842 -0.927232 -0.162178 -0.000857 -0.017846 -0.999840
0.314042 0.085304 0.146206 0.143107 0.032239 0.989182
0.272947 -0.247949 0.149066 0.022767 -0.001104 0.999740
-0.343638 -0.918108 0.034650 -0.658670 -0.752432 0.000000
0.254071 0.080850 0.149460 0.020183 0.032921 0.999254
0.303638 -0.616866 -0.161191 0.000000 0.000000 -1.000000
0.431314 -0.798988 -0.135066 0.885152 -0.444580 -0.137309
-0.181478 -0.916638 0.118462 -0.000857 -0.017846 0.999840
0.127406 -0.673033 -0.162828 0.000000 0.000000 -1.000000
-0.323966 0.060180 -0.056779 -0.977599 0.210474 0.000000
0.093269 -0.182890 -0.162828 0.000000 0.000000 -1.000000
-0.074277 0.745723 0.089588 -0.149039 -0.068438 -0.986460
0.069459 -0.806665 0.150224 0.000000 0.000000 1.000000
0.352798 -0.922912 -0.158453 0.110239 -0.143647 -0.983470
0.163396 -0.380382 0.150224 0.000000 0.000000 1.000000
0.031458 0.821251 0.136452 0.956357 0.045219 0.288681
0.009412 -1.000000 0.053318 0.000000 -1.000000 0.000000
0.266062 -0.960332 0.074098 0.478632 -0.877661 0.024955
0.298220 0.097173 -0.152956 0.766859 0.619643 -0.167244
-0.360636 -0.376929 0.109302 -0.900002 0.435072 0.026626
-0.328353 -0.330601 0.057230 -0.900360 0.435145 0.000000
-0.285217 0.119687 -0.082993 -0.791944 0.610386 -0.015937
-0.426295 -0.524138 -0.012502 -0.883143 0.469104 0.000000
0.255345 -0.890562 -0.185314 0.003080 -0.020412 -0.999787
0.308134 -0.883287 0.149575 0.026517 -0.048461 0.998473
-0.234502 -0.250080 -0.163655 -0.022991 0.006556 -0.999714
0.112385 -0.899615 0.150127 0.000857 -0.017846 0.999840
-0.164166 -0.289724 -0.134847 -0.000000 0.000000 -1.000000
-0.301006 0.091482 -0.157947 -0.129873 0.104943 -0.985961
-0.339332 -0.086253 -0.086921 -0.998207 -0.056676 -0.019228
-0.280883 0.025274 -0.161947 -0.018853 0.004626 -0.999812
0.099144 -0.319662 -0.166253 0.000000 0.000000 -1.000000
0.434060 -0.538756 0.037225 0.883143 0.469104 0.000000
-0.015917 -0.268349 -0.163850 0.000000 0.000000 -1.000000
-0.394645 -0.625642 -0.161938 -0.014658 0.002325 -0.999890
-0.461542 -0.679973 0.024494 -0.989633 -0.143620 -0.000000
-0.020518 0.859029 0.085894 -0.000000 -0.000000 -1.000000
-0.025896 0.211508 -0.160600 -0.654061 0.497021 -0.570241
0.012722 -0.217429 0.121856 0.000000 0.000000 1.000000
0.294462 -0.456786 -0.129515 -0.000000 0.000000 -1.000000
0.443202 -0.559495 0.122494 0.985023 0.169860 0.029636
-0.041865 0.403859 0.063290 -0.425312 0.108826 -0.898480
-0.114055 -0.997304 0.060564 -0.081207 -0.996697 -0.000000
-0.050486 0.185349 0.097460 -0.908969 0.416277 -0.022097
0.335186 -0.917016 -0.130451 0.657881 -0.752921 -0.017408
-0.318769 -0.265611 0.096355 -0.933713 0.357002 0.027027
0.447902 -0.585430 -0.114677 0.985257 0.169900 -0.020079
0.032493 -0.122436 0.121856 -0.000000 0.000000 1.000000
0.047257 0.154042 0.162821 0.000234 -0.000074 1.000000
0.279903 -0.222715 -0.186950 0.021947 -0.005165 -0.999746
-0.387208 -0.499585 0.147838 -0.140490 0.069434 0.987644
0.301848 0.067019 0.133881 0.977282 0.210406 0.025466
0.106377 -0.261205 0.124656 -0.758991 0.651102 0.000000
-0.181499 -0.135573 0.150216 0.000000 0.000000 1.000000
0.307204 -0.202954 -0.095357 0.970017 -0.242336 -0.018425
-0.224884 0.007589 0.172156 0.000000 0.000000 1.000000
-0.106407 -0.324010 0.150224 0.000000 0.000000 1.000000
0.312468 -0.324159 -0.031799 0.900360 0.435145 -0.000000
0.325725 -0.559916 0.150224 -0.000000 0.000000 1.000000
0.057041 -0.636588 -0.162791 0.000000 0.000000 -1.000000
0.317869 0.076959 -0.133464 0.775771 0.615846 -0.137526
0.330226 -0.336066 0.107398 0.900002 0.435072 0.026626
0.387393 -0.872798 -0.062898 0.658680 -0.752423 0.000009
-0.148577 0.145914 0.161101 -0.021390 0.142732 0.989530
-0.175483 -0.990122 0.017076 -0.236775 -0.971565 -0.000000
-0.343368 -0.098432 0.009217 -0.998455 -0.055572 0.000000
0.276155 0.135138 0.014911 0.800612 0.599184 -0.000000
0.292824 -0.944990 0.002073 0.478790 -0.877930 -0.000000
-0.238474 -0.108478 -0.162828 -0.000000 -0.000000 -1.000000
-0.314968 -0.942385 -0.145938 -0.475454 -0.869440 -0.134231
-0.362037 -0.707165 0.149864 -0.015489 -0.001535 0.999879
-0.222699 -0.975608 -0.077252 -0.236737 -0.971410 -0.017852
0.451137 -0.751712 -0.018111 0.989633 -0.143620 0.000000
-0.233470 -0.957998 0.169297 -0.034505 -0.157211 0.986962
0.453360 -0.729877 -0.112204 0.989497 -0.143220 -0.019584
0.088324 0.840305 0.097836 0.994362 -0.003839 -0.105966
-0.285747 -0.780356 0.150224 0.000000 0.000000 1.000000
-0.157768 0.181109 0.128062 -0.146058 0.989049 0.021174
0.280394 -0.139832 0.149346 0.020543 -0.006516 0.999768
-0.032630 -0.230828 -0.162498 0.000000 0.000000 -1.000000
0.135351 0.157907 0.148896 0.021001 0.144367 0.989301
0.282735 0.139258 0.029724 0.800570 0.599153 -0.010141
0.000354 -0.958522 0.149132 0.000025 -0.017181 0.999852
-0.013522 0.289536 -0.001209 -0.000000 0.983842 -0.179039
-0.347330 -0.369865 -0.056278 -0.900360 0.435145 0.000000
0.386447 -0.450991 -0.063880 0.883143 0.469104 0.000000
-0.461699 -0.674636 -0.095771 -0.989432 -0.143590 -0.020145
0.033795 0.431106 0.195066 0.000091 0.000001 1.000000
0.090625 -0.163327 -0.162828 0.000000 0.000000 -1.000000
0.157990 -0.422591 0.152546 0.000000 0.000000 1.000000
0.056690 0.204690 -0.072311 0.922024 0.345441 -0.174764
-0.457925 -0.701273 0.112587 -0.989273 -0.143188 0.028906
-0.290876 -0.633661 -0.162828 -0.000000 -0.000000 -1.000000
0.308983 0.097200 -0.066676 0.791919 0.610367 -0.017763
0.290254 0.076161 -0.160994 0.129873 0.104941 -0.985962
0.173808 -0.990151 0.013689 0.236775 -0.971565 0.000000
0.338857 -0.073957 0.075969 0.998455 -0.055572 0.000000
0.067680 -0.205070 0.119765 -0.000000 0.000000 1.000000
0.340454 -0.014802 0.065117 0.977600 0.210474 0.000000
0.203782 -0.472342 0.126604 -0.000000 0.000000 1.000000
-0.167891 -0.487516 -0.162828 0.000000 0.000000 -1.000000
-0.163035 -0.413852 -0.196055 0.000000 0.000000 -1.000000
0.324060 0.061348 0.056975 0.977600 0.210474 -0.000000
0.256992 -0.583478 0.149707 -0.000000 0.000000 1.000000
0.086552 -0.896725 -0.162796 0.000015 -0.017193 -0.999852
-0.357530 -0.768348 -0.154093 -0.015488 -0.001535 -0.999879
0.266594 0.137153 -0.149847 0.766859 0.619643 -0.167244
0.059848 0.171869 -0.162258 0.024253 0.057036 -0.998078
-0.055102 0.892894 0.085201 0.033173 -0.000295 -0.999450
-0.308457 -0.200231 0.077610 -0.970224 -0.242209 -0.000000
0.367750 -0.889994 -0.063917 0.658680 -0.752423 0.000009
-0.373652 -0.547607 -0.162055 -0.015332 0.007577 -0.999854
0.252095 -0.375456 -0.162828 0.000000 0.000000 -1.000000
-0.166913 -0.711703 -0.161765 -0.000000 0.000000 -1.000000
-0.099312 -0.618077 0.150224 0.000000 0.000000 1.000000
0.450010 -0.585654 0.115682 0.985023 0.169860 0.029636
-0.337653 -0.095588 -0.032526 -0.998455 -0.055572 0.000000
-0.299180 -0.445940 0.146934 -0.018277 0.007157 0.999807
-0.326111 -0.642815 -0.162828 -0.000000 -0.000000 -1.000000
-0.455881 -0.641180 -0.132334 -0.973023 0.167790 -0.158341
-0.139572 0.078857 -0.162828 -0.000000 0.000000 -1.000000
-0.074171 -0.872818 -0.129964 0.000000 0.000000 -1.000000
0.097289 -0.277787 -0.162828 -0.000000 -0.000000 -1.000000
-0.328974 0.072650 0.065945 -0.977600 0.210474 0.000000
0.405313 -0.630726 -0.161794 0.014658 0.002325 -0.999890
0.284675 -0.303333 0.009634 0.933899 0.357536 0.000000
0.376885 -0.881254 0.105227 0.658499 -0.752216 0.023455
0.209445 -0.141163 -0.162823 0.000000 0.000000 -1.000000
-0.306839 0.094139 -0.033818 -0.800612 0.599184 0.000000
-0.181688 -0.501824 -0.162828 -0.000000 0.000000 -1.000000
-0.392508 -0.868008 -0.079999 -0.658587 -0.752336 -0.015899
-0.082470 0.774305 0.106428 -0.758732 -0.646711 -0.078046
-0.349835 -0.375048 0.016208 -0.900360 0.435145 -0.000000
0.381453 -0.493223 -0.159318 0.120333 0.063755 -0.990684
0.265253 -0.586362 0.150224 -0.000000 0.000000 1.000000
-0.076249 0.207910 0.124647 -0.908647 0.416963 -0.022424
0.435267 -0.541976 0.098032 0.882828 0.468937 0.026714
-0.004827 -0.849398 -0.172047 0.000000 0.000000 -1.000000
0.022971 -0.336125 0.150224 0.000000 0.000000 1.000000
0.080275 0.789107 0.092983 0.984645 -0.004163 -0.174518
-0.095769 -0.551808 -0.162828 -0.000000 -0.000000 -1.000000
-0.192565 -0.684858 -0.162501 0.000000 0.000000 -1.000000
-0.231688 -0.919423 0.149527 -0.003080 -0.020412 0.999787
-0.072609 -0.822234 0.125126 -0.000000 -0.000000 1.000000
0.298259 -0.353977 -0.161805 0.018277 0.008294 -0.999799
0.178476 -0.988194 0.145211 0.011051 -0.135910 0.990659
-0.252307 -0.340463 -0.162661 -0.021359 0.007752 -0.999742
-0.406635 -0.559477 -0.161254 -0.121263 0.019231 -0.992434
0.318305 -0.306563 -0.073842 0.933736 0.357473 -0.018711
0.350037 0.068044 0.041032 0.977600 0.210474 -0.000000
-0.431492 -0.582154 -0.159200 -0.121263 0.019231 -0.992434
0.459718 -0.785105 -0.064452 0.893502 -0.448710 -0.017698
-0.423592 -0.817901 -0.040761 -0.893646 -0.448773 -0.000000
-0.069910 -0.575322 0.154750 0.000000 0.000000 1.000000
0.228437 -0.018482 0.150224 0.000000 0.000000 1.000000
0.262216 -0.496122 0.182379 -0.000000 0.000000 1.000000
0.450325 -0.598377 -0.105340 0.985257 0.169900 -0.020079
0.306669 0.072739 -0.058732 0.977454 0.210443 -0.017234
0.206802 -0.630808 0.150224 0.000000 0.000000 1.000000
0.139328 -0.852788 0.160434 0.000000 0.000000 1.000000
-0.020495 -0.090170 0.151247 0.209038 -0.977908 0.000000
0.235781 -0.975813 0.007509 0.236775 -0.971565 0.000000
-0.112441 -0.747507 0.160606 0.000000 0.000000 1.000000
-0.457128 -0.696291 -0.135187 -0.977578 -0.141495 -0.155953
0.064574 -0.976976 0.147670 0.000196 -0.134247 0.990948
0.027577 0.265051 0.021726 0.000000 0.554430 -0.832230
-0.288975 -0.264298 0.146728 -0.170737 -0.008278 0.985282
-0.208426 -0.953839 -0.092402 -0.236737 -0.971410 -0.017852
-0.130785 0.064911 0.150224 0.000000 -0.000000 1.000000
-0.205699 0.105823 0.149553 -0.002396 0.018323 0.999829
0.445332 -0.596236 -0.157555 0.973599 0.167191 -0.155411
-0.317861 -0.827382 0.158605 0.000000 -0.000000 1.000000
0.135708 -0.899017 -0.162721 0.000857 -0.017846 -0.999840
0.350989 -0.904686 0.004943 0.658675 -0.752428 0.000000
-0.015411 -0.322945 0.142703 0.309131 0.951020 0.000000
0.144223 -0.680427 0.157667 -0.000000 0.000000 1.000000
-0.039280 0.317194 0.037369 -0.505726 0.297379 -0.809819
-0.057826 0.898573 0.085400 0.010819 -0.000142 -0.999942
0.090149 -0.775475 -0.162828 0.000000 0.000000 -1.000000
-0.365392 -0.345168 -0.088585 -0.900175 0.435155 -0.018039
0.059968 0.947526 0.085037 -0.023064 -0.000042 -0.999734
0.046184 0.979177 0.107918 0.640649 0.766150 -0.050820
0.337775 -0.002355 -0.038507 0.977599 0.210474 0.000000
-0.082935 -0.992471 -0.144886 -0.080177 -0.986023 -0.146049
0.026873 0.144148 -0.162828 0.000000 0.000000 -1.000000
-0.189330 0.106577 -0.163050 -0.000000 0.000000 -1.000000
-0.165782 -0.878363 0.150224 0.000000 0.000000 1.000000
-0.052539 0.640177 0.161752 -0.000097 0.000098 1.000000
0.045332 -0.960758 -0.161696 0.000025 -0.017181 -0.999852
-0.339673 -0.088947 0.015397 -0.998455 -0.055572 0.000000
-0.326278 -0.925651 0.100696 -0.657764 -0.752787 0.025678
-0.099258 -0.246738 0.122444 0.000000 -0.000000 1.000000
-0.142968 -0.826337 0.150224 -0.000000 0.000000 1.000000
0.235539 -0.850898 0.122382 0.000000 0.000000 1.000000
0.233675 0.159982 0.120135 0.366822 0.929968 0.024520
-0.432915 -0.688687 0.149472 -0.117975 -0.016938 0.992872
-0.417726 -0.663721 -0.161689 -0.014658 0.002325 -0.999890
-0.279782 -0.958640 -0.006469 -0.478790 -0.877930 0.000000
-0.059703 0.213363 -0.032975 -0.911103 0.384494 -0.148510
-0.116154 0.007254 0.154343 0.000000 -0.000000 1.000000
