ply
format ascii 1.0
element vertex 838
property float x
property float y
property float z
property float nx
property float ny
property float nz
end_header
0.436540 -0.608417 0.113281 0.115728 0.019873 0.993082
-0.042150 -0.736083 0.160606 0.000000 -0.000000 1.000000
0.368770 -0.690097 -0.162399 0.014922 -0.001957 -0.999887
-0.255106 -0.513942 -0.162828 -0.000000 -0.000000 -1.000000
0.117953 -0.734506 0.151486 0.000000 -0.000000 1.000000
0.138553 0.091266 -0.162737 0.002260 0.018479 -0.999827
0.138250 -0.012002 0.139564 0.000000 0.000000 1.000000
0.357196 -0.390280 0.017402 0.900360 0.435145 0.000000
-0.227264 -0.673251 -0.162828 0.000000 0.000000 -1.000000
0.326248 -0.328680 -0.123944 0.900175 0.435155 -0.018039
-0.348201 -0.703247 0.136864 -0.015489 -0.001535 0.999879
0.047631 -0.288773 -0.162828 0.000000 0.000000 -1.000000
0.195058 -0.373310 0.150217 -0.000000 0.000000 1.000000
-0.020456 -0.321335 -0.162828 0.000000 -0.000000 -1.000000
-0.449002 -0.616739 -0.156615 -0.973599 0.167191 -0.155411
0.261334 -0.344436 -0.162499 0.021359 0.007752 -0.999742
0.059350 0.401554 0.069009 0.958414 0.038926 -0.282713
-0.305885 -0.313521 0.146853 -0.159911 0.060901 0.985251
-0.151441 -0.200300 0.150224 0.000000 0.000000 1.000000
0.037519 -1.000000 0.032126 0.000000 -1.000000 -0.000000
0.067336 0.205626 -0.005368 0.926007 0.346293 -0.150305
-0.112251 -0.353341 0.150224 0.000000 0.000000 1.000000
0.357422 -0.893465 -0.046059 0.658680 -0.752423 0.000009
-0.436886 -0.648827 0.147276 -0.115728 0.019873 0.993082
0.173310 -0.607611 0.150224 0.000000 -0.000000 1.000000
0.073875 0.041504 -0.162828 -0.000000 0.000000 -1.000000
-0.351064 -0.377593 0.073221 -0.900360 0.435145 0.000000
-0.130351 -0.006197 -0.162828 0.000000 0.000000 -1.000000
-0.021094 0.301895 0.025661 -0.000000 0.554430 -0.832230
-0.368315 -0.416585 0.128005 -0.883713 0.427198 0.191187
-0.074795 0.198415 0.022004 -0.244157 0.969417 -0.024849
0.004306 0.757701 0.151186 -0.000000 0.000000 1.000000
-0.016124 0.768882 0.085985 0.000000 -0.022972 -0.999736
-0.224682 -0.726234 -0.162828 -0.000000 0.000000 -1.000000
0.242505 -0.973789 -0.053677 0.236775 -0.971565 0.000000
-0.059967 -0.261100 -0.162828 0.000000 0.000000 -1.000000
0.024741 -0.999904 -0.065923 -0.000000 -0.999822 -0.018887
-0.067251 0.237163 0.128888 -0.984926 0.170915 0.026629
-0.317242 -0.896862 0.096260 -0.657764 -0.752787 0.025678
-0.010259 -0.079450 -0.162828 0.000000 0.000000 -1.000000
0.180688 0.178736 -0.036837 0.337582 0.940912 -0.026888
-0.215940 -0.980263 0.065579 -0.236775 -0.971565 0.000000
0.346304 -0.506757 -0.160767 0.015332 0.007577 -0.999854
0.429331 -0.601900 -0.159846 0.121263 0.019231 -0.992434
-0.105576 -0.085215 -0.162828 0.000000 0.000000 -1.000000
-0.054259 0.091529 0.162818 -0.000205 0.000124 1.000000
-0.050221 -0.204697 -0.162828 -0.000000 -0.000000 -1.000000
0.100492 -0.997950 -0.089407 0.081193 -0.996520 -0.018884
0.217092 -0.444045 -0.162740 -0.000000 0.000000 -1.000000
0.309450 -0.937203 -0.082941 0.478963 -0.877665 -0.017280
0.227497 -0.693716 0.150237 0.000000 0.000000 1.000000
-0.225453 -0.775530 0.150224 0.000000 0.000000 1.000000
0.020736 -0.426740 -0.162828 0.000000 0.000000 -1.000000
0.290562 -0.708930 0.150224 -0.000000 0.000000 1.000000
0.286921 -0.197932 -0.153488 0.170055 -0.040018 -0.984622
0.329676 -0.396407 0.148973 0.159780 0.072507 0.984486
0.211498 -0.974789 0.145485 0.035739 -0.146502 0.988565
0.327139 -0.328088 -0.035162 0.900360 0.435145 -0.000000
-0.365867 -0.811078 -0.162044 -0.016224 -0.007514 -0.999840
-0.220045 -0.546378 -0.162828 -0.000000 0.000000 -1.000000
-0.295369 -0.861637 -0.160594 0.000000 -0.000000 -1.000000
-0.174499 -0.733853 -0.162828 -0.000000 0.000000 -1.000000
0.431632 -0.714861 0.149189 0.014922 -0.001957 0.999887
-0.031120 0.253752 -0.045553 -0.223438 0.955863 -0.190791
-0.318288 -0.491080 -0.162828 -0.000000 -0.000000 -1.000000
0.289990 -0.948008 -0.073089 0.478712 -0.877809 -0.016906
0.067549 -0.997381 -0.141136 0.001027 -0.988871 -0.148769
-0.067991 0.201787 0.154556 -0.996313 -0.003724 0.085711
-0.112868 -0.234522 -0.162828 0.000000 -0.000000 -1.000000
-0.292552 -0.016000 0.149338 -0.019406 0.004372 0.999802
-0.010582 0.416235 0.058788 -0.000000 0.127593 -0.991827
0.094886 -0.220135 -0.162828 0.000000 0.000000 -1.000000
0.414319 -0.826107 -0.174588 0.884982 -0.444701 -0.138017
0.269637 -0.283477 0.149251 0.021360 0.007602 0.999743
0.433932 -0.666041 -0.160569 0.115728 0.019873 -0.993082
-0.209213 -0.190910 -0.162828 0.000000 -0.000000 -1.000000
0.170427 -0.113229 0.127195 0.000000 -0.000000 1.000000
0.220644 -0.941927 -0.161742 0.004233 -0.019287 -0.999805
0.088505 -0.505919 0.150224 -0.000000 0.000000 1.000000
0.404418 -0.683716 0.149276 0.014922 -0.001957 0.999887
0.433138 -0.560254 0.145970 0.121262 0.019231 0.992434
-0.279315 -0.022555 0.149616 -0.019314 -0.000934 0.999813
-0.267764 -0.956037 -0.003722 -0.478790 -0.877930 0.000000
0.363834 -0.892864 0.099291 0.658499 -0.752216 0.023455
0.166624 -0.517673 -0.162828 -0.000000 0.000000 -1.000000
0.170500 -0.737236 -0.162828 -0.000000 0.000000 -1.000000
-0.369014 -0.830891 0.149240 -0.016224 -0.007514 0.999840
0.269418 -0.714895 0.150224 -0.000000 0.000000 1.000000
-0.091109 -0.182815 0.121856 0.000000 -0.000000 1.000000
0.110215 -0.439753 0.150224 0.000000 -0.000000 1.000000
-0.175528 -0.751378 -0.162828 0.000000 0.000000 -1.000000
0.120846 0.189378 0.083773 0.143749 0.989462 0.017329
-0.002961 0.255161 -0.046306 -0.000000 0.983842 -0.179039
0.221026 -0.975401 0.138682 0.232603 -0.953476 0.191782
0.323179 -0.795910 0.150224 0.000000 0.000000 1.000000
0.283448 -0.133698 0.149323 0.020543 -0.006516 0.999768
-0.036613 -0.214936 -0.162828 0.000000 -0.000000 -1.000000
-0.035261 0.416822 0.061447 -0.425312 0.108826 -0.898480
-0.021425 0.850504 0.151186 0.000000 -0.000000 1.000000
0.450031 -0.759331 0.029307 0.989633 -0.143620 0.000000
0.092985 -0.840504 0.150224 0.000000 0.000000 1.000000
0.166206 -0.471171 -0.162828 -0.000000 0.000000 -1.000000
-0.335299 -0.113486 -0.044442 -0.946457 -0.322830 -0.000000
-0.022592 -0.167939 0.121856 -0.000000 0.000000 1.000000
-0.059030 -0.683094 0.150953 -0.000000 0.000000 1.000000
-0.406945 -0.611875 -0.161726 -0.014658 0.002325 -0.999890
-0.088001 0.831789 0.098056 -0.811543 -0.577719 -0.087398
0.164269 -0.014500 0.150224 -0.000000 0.000000 1.000000
-0.451542 -0.748927 0.054482 -0.989633 -0.143620 0.000000
0.312230 -0.290241 -0.063268 0.933899 0.357536 0.000000
0.295102 0.063536 0.148701 0.143107 0.032239 0.989182
0.297117 0.107631 0.074719 0.805047 0.593211 -0.000000
0.449406 -0.594691 -0.108310 0.985257 0.169900 -0.020079
-0.277865 -0.373012 0.149763 -0.021359 0.007752 0.999742
0.016754 0.860018 0.085894 0.000000 0.000000 -1.000000
0.037605 -0.513889 0.150224 -0.000000 0.000000 1.000000
-0.202115 -0.440494 0.150224 -0.000000 0.000000 1.000000
0.056599 0.584880 0.114114 0.999139 0.012471 -0.039575
0.413713 -0.837491 -0.060582 0.893642 -0.448781 0.000000
-0.322715 -0.319212 0.101890 -0.933543 0.357400 0.027618
0.198510 -0.016671 0.150224 0.000000 0.000000 1.000000
-0.283018 -0.558061 0.150224 -0.000000 -0.000000 1.000000
-0.189535 0.176929 0.029032 -0.354162 0.935015 -0.017769
0.118949 0.140364 0.149335 0.005194 0.018944 0.999807
0.055734 0.309334 0.057329 0.972203 0.085566 -0.217946
0.084191 -0.590471 -0.162828 0.000000 -0.000000 -1.000000
0.200734 -0.831408 0.150224 0.000000 0.000000 1.000000
0.380384 -0.437705 0.002942 0.883143 0.469104 0.000000
-0.161514 -0.844564 0.150224 0.000000 0.000000 1.000000
-0.192407 -0.184450 -0.162828 0.000000 -0.000000 -1.000000
-0.133409 -0.204126 0.150224 0.000000 0.000000 1.000000
-0.171267 -0.722199 -0.162828 -0.000000 0.000000 -1.000000
0.013565 0.084420 0.162827 0.000205 0.000124 1.000000
-0.340855 -0.528369 -0.162389 -0.015332 0.007577 -0.999854
-0.329839 -0.502733 0.149777 -0.018277 0.007157 0.999807
-0.128174 -0.818420 0.150224 0.000000 0.000000 1.000000
0.147902 -0.572788 -0.162828 0.000000 -0.000000 -1.000000
0.066711 0.031579 0.155117 0.999666 0.000000 -0.025856
0.106358 -0.549482 -0.162828 0.000000 0.000000 -1.000000
0.083562 0.922873 0.123181 0.999052 0.012685 -0.041646
0.178162 -0.272161 0.150224 -0.000000 0.000000 1.000000
0.064833 0.806704 0.084918 -0.024067 0.000011 -0.999710
0.054358 0.297956 0.161922 0.045729 0.000367 0.998954
-0.077424 -0.883187 0.150224 0.000000 -0.000000 1.000000
-0.104171 -0.033517 -0.162828 0.000000 -0.000000 -1.000000
0.298917 -0.628682 0.150224 -0.000000 0.000000 1.000000
-0.087865 -0.471856 -0.162828 0.000000 0.000000 -1.000000
0.282250 -0.162785 0.149160 0.021947 -0.005576 0.999744
-0.347764 -0.959100 -0.123250 -0.657881 -0.752921 -0.017396
-0.237952 -0.631479 0.150224 0.000000 0.000000 1.000000
0.336578 -0.103152 -0.099428 0.998207 -0.056676 -0.019228
-0.241981 -0.029211 -0.162828 -0.000000 -0.000000 -1.000000
-0.358542 -0.458736 0.171818 -0.140490 0.069434 0.987644
0.043774 0.629694 0.161202 0.042422 0.000303 0.999100
0.223478 -0.871742 0.150224 0.000000 0.000000 1.000000
0.072895 -0.292817 -0.162828 0.000000 0.000000 -1.000000
0.310133 -0.124258 -0.159910 0.155800 -0.052871 -0.986373
0.030250 -0.789137 -0.162828 0.000000 0.000000 -1.000000
-0.459687 -0.691545 -0.074100 -0.989432 -0.143590 -0.020145
-0.388954 -0.552006 0.149227 -0.015332 0.007578 0.999854
0.171807 0.004339 -0.131876 -0.000000 0.000000 -1.000000
0.109172 -0.839363 0.150224 0.000000 0.000000 1.000000
0.308074 0.078298 -0.158415 0.129873 0.104941 -0.985962
0.033013 -0.999309 0.106161 0.000000 -0.999611 0.027877
0.053692 -0.454037 0.143141 -0.000000 0.000000 1.000000
-0.319886 -0.434371 0.149470 -0.018277 0.007157 0.999807
0.226929 -0.046126 -0.162828 0.000000 0.000000 -1.000000
-0.318410 -0.309872 -0.132131 -0.933897 0.357072 -0.018311
0.321651 -0.193031 -0.045009 0.970224 -0.242209 0.000000
0.321872 0.071508 -0.025380 0.977599 0.210474 -0.000000
0.052088 -0.461585 0.150224 -0.000000 0.000000 1.000000
-0.291340 -0.526015 -0.162828 -0.000000 -0.000000 -1.000000
-0.003150 -0.813145 -0.162828 0.000000 0.000000 -1.000000
0.138353 -0.126846 -0.162828 -0.000000 0.000000 -1.000000
-0.321108 -0.645196 0.149865 0.000000 0.000000 1.000000
-0.030298 -0.745646 0.160606 0.000000 -0.000000 1.000000
0.155598 0.089578 0.149443 -0.000000 0.000000 1.000000
-0.209435 -0.599191 -0.162828 0.000000 0.000000 -1.000000
-0.424712 -0.832872 0.084894 -0.893341 -0.448620 0.026123
-0.457283 -0.703753 -0.105119 -0.989432 -0.143590 -0.020145
0.337959 -0.351148 -0.081499 0.900216 0.435076 -0.017878
-0.202196 0.172520 0.114830 -0.363318 0.931510 0.017008
-0.081438 0.946785 0.126373 -0.747081 0.663422 -0.041731
0.378812 -0.434746 -0.053720 0.883143 0.469104 0.000000
-0.046137 0.002634 0.162834 0.000000 -0.000000 1.000000
-0.083257 0.196017 0.012456 -0.244228 0.969121 -0.034016
-0.409493 -0.845434 0.090689 -0.893308 -0.448676 0.026271
-0.052137 0.202773 -0.097952 -0.920645 0.342532 -0.187311
0.382513 -0.853738 -0.160354 0.144151 -0.066761 -0.987301
0.354958 -0.814425 -0.162196 0.016224 -0.007514 -0.999840
-0.360332 -0.397041 0.007111 -0.900360 0.435145 -0.000000
0.146613 -0.994652 -0.034093 0.081207 -0.996697 0.000000
0.398227 -0.482267 0.098040 0.882971 0.468713 0.025888
0.303318 -0.333381 -0.161213 0.159781 0.072508 -0.984486
0.206724 -0.664028 -0.162828 0.000000 0.000000 -1.000000
0.055903 0.406042 0.085783 0.958414 0.038926 -0.282713
0.367286 -0.866841 0.148531 0.156698 -0.180377 0.971036
-0.429421 -0.530024 -0.048346 -0.883143 0.469104 0.000000
0.458633 -0.692295 -0.120619 0.989497 -0.143220 -0.019584
-0.338233 -0.085164 0.006002 -0.998455 -0.055572 0.000000
0.216345 0.167520 -0.090877 0.323031 0.945208 -0.047262
-0.310321 0.088819 0.102801 -0.805863 0.591520 0.026257
-0.309677 -0.195340 -0.043150 -0.970224 -0.242209 0.000000
-0.019901 -0.737831 0.160606 0.000000 -0.000000 1.000000
0.032401 0.798214 0.139408 0.955712 0.044157 0.290973
-0.075626 0.191541 -0.128093 -0.217649 0.974309 -0.057892
-0.064539 -1.000000 -0.041005 0.000000 -1.000000 0.000000
-0.053565 0.219718 -0.057807 -0.934399 0.328629 -0.137484
-0.269506 -0.651877 -0.162828 -0.000000 -0.000000 -1.000000
-0.340271 -0.045637 0.087553 -0.998111 -0.055552 0.026253
0.456253 -0.630330 0.094996 0.984967 0.170082 0.030199
-0.009141 0.939056 0.151186 -0.000000 0.000000 1.000000
-0.186490 -0.354132 0.150224 0.000000 0.000000 1.000000
-0.190152 -0.986547 -0.063538 -0.236775 -0.971565 0.000000
-0.171395 -0.894848 -0.162609 -0.000857 -0.017846 -0.999840
-0.206720 0.130838 -0.161354 -0.023513 0.029857 -0.999278
0.228702 -0.976386 -0.088571 0.236788 -0.971396 -0.017917
0.444669 -0.560908 -0.065823 0.985210 0.170124 -0.020461
-0.154529 -0.612881 0.150224 0.000000 0.000000 1.000000
-0.080942 0.756889 0.144804 -0.972031 -0.032894 0.232537
-0.332603 0.009625 -0.140645 -0.968476 0.206448 -0.139404
-0.160083 0.161824 0.147800 -0.021001 0.144367 0.989301
0.176429 -0.797851 0.150224 0.000000 0.000000 1.000000
-0.269528 -0.318600 0.149520 -0.021359 0.007602 0.999743
0.334288 -0.006007 0.142119 0.959783 0.204640 0.192198
0.107757 -0.274278 0.150224 -0.000000 -0.000000 1.000000
-0.135106 -0.205829 -0.162828 0.000000 0.000000 -1.000000
-0.083513 0.136162 -0.162172 -0.004803 0.017555 -0.999834
-0.023718 -0.116295 -0.162828 -0.000000 -0.000000 -1.000000
0.162415 -0.091700 0.150224 0.000000 0.000000 1.000000
0.235035 0.088049 0.149607 0.020183 0.032921 0.999254
-0.124133 0.111003 -0.162432 -0.003892 0.017082 -0.999846
-0.228963 0.161263 -0.042270 -0.337578 0.940913 -0.026892
0.205182 -0.898597 -0.162644 0.004233 -0.019287 -0.999805
-0.167696 -0.991165 -0.111687 -0.236737 -0.971410 -0.017852
-0.458597 -0.693810 -0.111471 -0.989432 -0.143590 -0.020145
-0.212715 0.167890 -0.011854 -0.354209 0.935140 -0.007062
0.255117 -0.319195 -0.162436 0.021359 0.007602 -0.999743
-0.040184 -0.647257 0.117688 0.000000 0.000000 1.000000
-0.149536 0.094354 -0.162656 -0.002260 0.018479 -0.999827
-0.411071 -0.817522 0.146197 -0.127519 -0.064078 0.989764
0.411229 -0.758198 0.149028 0.014922 -0.001957 0.999887
-0.105484 -0.946423 -0.173729 -0.001268 -0.017389 -0.999848
-0.270967 0.139778 -0.074649 -0.782667 0.621323 -0.037284
0.453045 -0.615552 -0.117169 0.985257 0.169900 -0.020079
-0.082806 -0.949224 0.149290 -0.000015 -0.017193 0.999852
0.247699 0.047921 -0.165007 0.016597 0.005671 -0.999846
-0.175615 -0.502773 0.150224 -0.000000 -0.000000 1.000000
0.231120 -0.972396 -0.142213 0.234696 -0.962058 -0.139151
0.202495 -0.744561 0.150224 0.000000 0.000000 1.000000
0.125375 -0.999952 0.145877 0.011051 -0.135910 0.990659
-0.451786 -0.602223 -0.066669 -0.985210 0.170124 -0.020461
-0.419018 -0.650815 0.149602 -0.014659 0.002325 0.999890
-0.394958 -0.860023 0.145332 -0.156698 -0.180377 0.971036
0.371618 -0.421241 -0.030754 0.900360 0.435145 0.000000
0.025698 -0.626944 -0.162828 0.000000 -0.000000 -1.000000
-0.288390 -0.580418 0.150224 0.000000 0.000000 1.000000
0.032126 -0.213694 0.121856 0.000000 0.000000 1.000000
0.066818 -0.251056 -0.162323 0.000000 0.000000 -1.000000
-0.173157 0.074354 -0.162828 -0.000000 0.000000 -1.000000
0.022494 -1.000000 0.064099 0.000000 -1.000000 0.000000
-0.076378 -0.101786 -0.162828 0.000000 0.000000 -1.000000
0.461799 -0.665715 -0.017544 0.985417 0.170159 0.000000
-0.139145 -0.275647 -0.162828 -0.000000 0.000000 -1.000000
-0.180442 0.155422 0.148302 -0.021001 0.144367 0.989301
0.059053 -0.899093 0.150152 0.000015 -0.017193 0.999852
-0.169350 -0.918646 -0.162415 -0.000857 -0.017846 -0.999840
-0.411306 -0.497437 -0.104647 -0.883131 0.468798 -0.017539
0.176703 -0.426028 -0.175338 0.000000 -0.000000 -1.000000
0.091029 0.857874 0.137182 -0.226897 -0.081878 0.970471
-0.018358 0.260234 -0.018428 -0.000000 0.983842 -0.179039
0.311258 -0.169601 -0.156756 0.937816 -0.318251 -0.138626
-0.305575 -0.052251 -0.161683 -0.020543 -0.000844 -0.999789
-0.094417 -0.111667 0.150224 -0.000000 0.000000 1.000000
0.203553 -0.780366 0.150224 0.000000 0.000000 1.000000
-0.067451 -0.556905 -0.162828 -0.000000 -0.000000 -1.000000
0.171825 0.123192 0.149485 0.002396 0.018323 0.999829
-0.204653 -0.983013 0.009862 -0.236775 -0.971565 -0.000000
0.291680 -0.847658 -0.162828 0.000000 0.000000 -1.000000
-0.192168 0.176750 0.061206 -0.354162 0.935015 -0.017769
0.037020 0.867878 0.085718 -0.010819 -0.000215 -0.999941
-0.143106 -0.994937 -0.025128 -0.081207 -0.996697 -0.000000
0.057454 -0.303209 0.121856 0.000000 -0.000000 1.000000
0.037571 0.391111 0.059187 0.446463 0.118603 -0.886907
-0.210624 -0.022496 -0.162824 -0.000000 0.000000 -1.000000
-0.309925 -0.937289 0.044718 -0.478790 -0.877930 -0.000000
0.007114 -0.758299 0.155434 0.001658 -0.563713 0.825969
0.281573 0.128630 0.083916 0.804841 0.593059 0.022617
-0.178689 -0.880510 -0.170553 0.000000 -0.000000 -1.000000
0.059411 0.271264 0.068914 0.985741 0.085158 -0.145132
0.340434 -0.907485 -0.053602 0.658680 -0.752423 0.000009
-0.207060 -0.313096 -0.162828 -0.000000 -0.000000 -1.000000
0.030347 -0.659066 0.182491 -0.000000 0.000000 1.000000
0.128811 -0.055213 -0.162828 -0.000000 -0.000000 -1.000000
-0.162467 -0.918970 -0.162828 0.000000 0.000000 -1.000000
-0.442389 -0.777848 0.126399 -0.893308 -0.448676 0.026271
0.451916 -0.602809 0.016082 0.985417 0.170159 0.000000
-0.351925 -0.870886 -0.161618 -0.026517 -0.048461 -0.998473
-0.422726 -0.517414 -0.021807 -0.883143 0.469104 0.000000
0.024863 -0.319872 0.139960 -0.309131 0.951020 0.000000
0.090651 0.896317 0.109692 0.994284 -0.002864 -0.106726
0.083850 0.921661 0.129721 0.999052 0.012685 -0.041646
0.103903 -0.651568 -0.162828 0.000000 0.000000 -1.000000
0.433022 -0.536962 0.084214 0.882828 0.468937 0.026714
-0.050137 -0.499589 0.150224 0.000000 -0.000000 1.000000
-0.191718 -0.475270 0.150224 -0.000000 -0.000000 1.000000
0.385438 -0.447215 0.033602 0.883143 0.469104 0.000000
-0.081818 -0.773814 0.150224 -0.000000 -0.000000 1.000000
0.117983 -0.586338 0.150224 0.000000 -0.000000 1.000000
0.327131 -0.703349 -0.162828 0.000000 0.000000 -1.000000
0.235403 -0.817937 -0.162828 0.000000 0.000000 -1.000000
0.364961 -0.853665 -0.161744 0.018367 -0.006453 -0.999811
-0.108989 -0.697208 -0.162463 -0.000000 0.000000 -1.000000
0.268389 -0.359608 -0.162466 0.021359 0.007752 -0.999742
-0.081027 0.708424 0.125795 -0.997874 -0.038534 -0.052566
-0.230730 -0.580169 0.150224 0.000000 0.000000 1.000000
0.111086 -0.997054 0.098982 0.081176 -0.996310 0.027874
0.080740 0.709364 0.126717 0.997874 -0.038534 -0.052566
-0.332343 -0.549297 -0.162678 -0.015332 0.007577 -0.999854
0.284933 0.033279 -0.161834 0.018853 0.004626 -0.999812
-0.243659 -0.646419 -0.162828 -0.000000 0.000000 -1.000000
-0.275025 -0.507812 -0.162828 -0.000000 -0.000000 -1.000000
-0.266340 -0.960889 -0.048529 -0.478721 -0.877804 -0.016906
-0.204064 -0.360937 0.150224 0.000000 0.000000 1.000000
0.058412 -0.115197 0.121856 -0.000000 0.000000 1.000000
-0.120684 -0.897037 -0.162769 -0.000857 -0.017846 -0.999840
-0.346879 -0.627649 0.150048 -0.015424 0.001893 0.999879
-0.191902 -0.243874 -0.162828 0.000000 0.000000 -1.000000
-0.227829 -0.992436 -0.025493 -0.236775 -0.971565 -0.000000
-0.335779 0.006916 -0.032227 -0.977599 0.210474 0.000000
-0.413291 -0.500355 -0.082355 -0.882998 0.469027 -0.018099
0.326876 0.043238 -0.125923 0.977548 0.209947 -0.017972
0.307457 -0.204232 0.072577 0.970224 -0.242209 0.000000
-0.318143 -0.163773 -0.030132 -0.946457 -0.322830 0.000000
-0.297383 -0.390709 -0.161689 -0.018277 0.008294 -0.999799
-0.293288 -0.621766 0.150224 0.000000 0.000000 1.000000
0.339374 -0.060970 0.089204 0.998111 -0.055552 0.026253
0.075628 -0.099222 -0.162828 -0.000000 -0.000000 -1.000000
-0.208069 -0.826095 0.150224 -0.000000 0.000000 1.000000
0.063161 0.247055 0.073926 0.974412 0.170190 -0.146825
0.256635 -0.116540 -0.162590 0.020543 -0.006516 -0.999768
-0.164335 -0.673061 0.150224 0.000000 0.000000 1.000000
0.021075 -0.045776 0.162820 0.000000 0.000000 1.000000
-0.162699 -0.993238 -0.045039 -0.236775 -0.971565 0.000000
-0.124059 0.883438 0.110772 -0.994130 -0.003845 -0.108122
0.378746 -0.434622 -0.057019 0.883143 0.469104 0.000000
0.266908 -0.897389 0.149904 0.003080 -0.020412 0.999787
0.165709 -0.895237 -0.162763 0.000857 -0.017846 -0.999840
-0.320645 -0.366802 -0.158545 -0.159788 0.072509 -0.984485
-0.324292 -0.145747 0.010282 -0.946457 -0.322830 -0.000000
-0.339244 -0.914966 0.073707 -0.658670 -0.752432 0.000000
-0.223083 0.164637 0.100355 -0.363318 0.931510 0.017008
0.061467 0.781512 0.176375 -0.953923 -0.030505 0.298496
-0.295647 -0.944104 -0.114980 -0.478963 -0.877665 -0.017267
-0.222219 -0.213691 0.150224 0.000000 -0.000000 1.000000
-0.424257 -0.771559 0.147474 -0.127519 -0.064078 0.989764
-0.299221 -0.068361 0.149182 -0.019314 -0.000934 0.999813
0.088277 0.837134 0.097678 0.994362 -0.003839 -0.105966
0.193064 0.087618 -0.163240 0.002260 0.018479 -0.999827
0.406306 -0.691903 -0.161836 0.014922 -0.001957 -0.999887
0.221766 -0.642695 -0.163797 0.000000 0.000000 -1.000000
0.044204 0.470430 0.161276 0.040638 0.000563 0.999174
0.344390 -0.363784 0.022908 0.900360 0.435145 0.000000
0.308715 0.043567 0.147376 0.143107 0.032239 0.989182
-0.006296 0.685209 0.154379 -0.000000 0.139970 0.990156
0.395922 -0.712279 -0.161951 0.014922 -0.001957 -0.999887
-0.300058 -0.633071 -0.162831 -0.000000 -0.000000 -1.000000
-0.135856 -0.585227 0.150224 0.000000 0.000000 1.000000
-0.445757 -0.722631 0.145747 -0.117975 -0.016938 0.992872
-0.018682 0.725213 0.151186 0.000000 -0.000000 1.000000
0.102760 -0.356609 0.150224 0.000000 -0.000000 1.000000
0.275758 -0.508044 0.150224 -0.000000 0.000000 1.000000
-0.452213 -0.608584 -0.127934 -0.985257 0.169900 -0.020079
0.268187 -0.774575 -0.162828 0.000000 0.000000 -1.000000
0.124909 -0.021339 0.150224 0.000000 -0.000000 1.000000
-0.072478 0.191889 -0.133843 -0.223642 0.960750 -0.164145
-0.085171 0.066748 0.150224 -0.000000 0.000000 1.000000
0.063034 0.294038 0.112174 0.999559 0.008147 -0.028562
-0.124046 -0.003417 0.150224 0.000000 -0.000000 1.000000
-0.223345 -0.370522 0.150224 0.000000 0.000000 1.000000
0.297661 -0.429457 -0.162446 0.018277 0.008294 -0.999799
0.154299 0.183790 -0.000805 0.139277 0.990194 -0.010839
0.001640 0.420109 0.058373 -0.000000 0.127593 -0.991827
0.197329 -0.984798 0.067268 0.236775 -0.971565 0.000000
-0.047625 0.240567 -0.071150 -0.953391 0.078413 -0.291371
-0.454773 -0.623022 -0.095788 -0.985210 0.170124 -0.020461
0.007402 -0.592981 0.182864 -0.000000 0.000000 1.000000
-0.227510 -0.108689 0.150224 0.000000 0.000000 1.000000
-0.227497 -0.976379 -0.123445 -0.236788 -0.971396 -0.017917
-0.071954 0.210878 0.048870 -0.905186 0.414548 -0.093740
-0.230426 0.156745 -0.138208 -0.319862 0.935937 -0.147344
0.047691 -0.651175 0.150224 -0.000000 0.000000 1.000000
-0.022730 -1.012162 0.075896 0.000000 -1.000000 0.000000
0.124507 -0.014578 0.150224 0.000000 0.000000 1.000000
0.034232 -0.606129 -0.162828 0.000000 -0.000000 -1.000000
0.147942 0.041155 -0.162828 -0.000000 0.000000 -1.000000
0.256559 -0.294491 0.181335 0.022992 0.006556 0.999714
0.299020 -0.200851 0.145948 0.165169 -0.041378 0.985397
-0.160201 0.206492 -0.147137 -0.125408 0.982239 -0.139568
0.400834 -0.476205 -0.053916 0.883143 0.469104 0.000000
-0.021317 0.576303 0.161753 -0.000096 0.000001 1.000000
-0.199122 -0.340593 -0.162828 -0.000000 0.000000 -1.000000
-0.223256 -0.966106 0.145720 -0.034505 -0.157211 0.986962
-0.166357 0.026370 -0.162828 -0.000000 0.000000 -1.000000
0.370199 -0.887849 0.039230 0.658675 -0.752428 0.000000
0.051406 -0.833452 -0.162828 0.000000 0.000000 -1.000000
-0.084727 -0.588923 -0.162828 -0.000000 -0.000000 -1.000000
0.163837 -0.446172 -0.162828 -0.000000 0.000000 -1.000000
0.118373 -0.335352 -0.162830 0.000000 0.000000 -1.000000
-0.338226 -0.062312 0.126994 -0.980176 -0.055640 0.190158
-0.080688 -0.954528 0.149198 -0.000015 -0.017193 0.999852
0.452678 -0.607207 0.049198 0.985417 0.170159 -0.000000
-0.020539 -1.000000 -0.023591 -0.000000 -1.000000 0.000000
-0.374456 -0.428425 -0.124398 -0.900216 0.435076 -0.017878
0.060096 -0.201678 0.121856 -0.000000 0.000000 1.000000
0.291013 -0.809512 -0.162828 0.000000 0.000000 -1.000000
0.303757 -0.243507 0.055697 0.998907 -0.046740 0.000000
0.322220 -0.916650 0.146346 0.110239 -0.143647 0.983470
0.080408 -0.674595 -0.162828 0.000000 0.000000 -1.000000
0.084985 -0.939501 0.149457 0.000015 -0.017193 0.999852
0.337512 -0.121735 0.048461 0.946457 -0.322830 0.000000
0.299378 -0.235733 0.143268 0.976772 -0.048709 0.208672
0.337526 -0.001200 0.066391 0.977600 0.210474 0.000000
-0.010692 -0.999883 0.085594 0.000000 -0.999611 0.027877
-0.099516 -0.621251 -0.162828 -0.000000 -0.000000 -1.000000
0.163094 -0.456372 -0.162828 -0.000000 0.000000 -1.000000
0.337169 -0.127103 0.004796 0.998455 -0.055572 -0.000000
-0.323434 0.064251 -0.061950 -0.977599 0.210474 0.000000
0.144491 -0.993120 -0.153011 0.080177 -0.986023 -0.146046
0.162171 -0.921095 -0.162304 0.000857 -0.017846 -0.999840
0.037495 -0.094923 0.135640 -0.208493 -0.975360 0.072129
0.013897 0.248297 -0.092125 0.000000 0.993466 -0.114128
0.028440 -0.487807 -0.162828 -0.000000 0.000000 -1.000000
-0.089439 -0.381574 0.150224 0.000000 0.000000 1.000000
0.160265 -0.992527 0.089992 0.081133 -0.996316 0.027796
0.012083 -0.944140 0.149379 0.000025 -0.017181 0.999852
-0.212688 -0.419410 -0.162828 -0.000000 -0.000000 -1.000000
0.172296 0.105950 -0.162390 0.002260 0.018479 -0.999827
0.156714 0.134724 -0.161915 0.007742 0.013785 -0.999875
-0.003993 -0.001139 0.162828 0.000000 -0.000000 1.000000
-0.134646 -0.531129 0.150224 -0.000000 -0.000000 1.000000
0.046023 0.556035 0.161140 0.041642 0.000521 0.999132
0.430220 -0.862902 -0.092574 0.658597 -0.752328 -0.015890
0.175462 0.048310 0.150224 -0.000000 0.000000 1.000000
-0.336860 -0.108205 0.084602 -0.997991 -0.056651 0.028381
-0.270941 -0.837131 0.150224 0.000000 -0.000000 1.000000
-0.346940 -0.790930 -0.162447 -0.016224 -0.007514 -0.999840
0.023034 0.125069 0.162825 0.000234 -0.000074 1.000000
0.319102 0.071850 -0.081845 0.977454 0.210443 -0.017234
-0.384015 -0.446089 0.109284 -0.882971 0.468713 0.025888
0.012344 -0.056195 -0.162828 0.000000 0.000000 -1.000000
0.054109 0.152653 0.162819 0.000234 -0.000074 1.000000
0.061915 0.317588 0.076970 0.999285 0.024780 -0.028554
-0.452889 -0.739639 0.051232 -0.989633 -0.143620 0.000000
-0.055615 -0.093187 0.162828 0.000000 0.000000 1.000000
0.067768 0.222234 0.058259 0.917725 0.387814 -0.085914
-0.105606 -0.460255 -0.162828 0.000000 0.000000 -1.000000
0.339627 -0.879053 0.148944 0.026517 -0.048461 0.998473
-0.460091 -0.650139 -0.044525 -0.985417 0.170159 -0.000000
0.007726 -0.470548 -0.162828 -0.000000 0.000000 -1.000000
-0.103855 -0.840573 -0.162828 0.000000 0.000000 -1.000000
0.173900 0.181572 0.089030 0.146060 0.989049 0.021174
-0.378936 -0.466987 -0.058773 -0.883143 0.469104 0.000000
-0.340272 -0.044220 0.090531 -0.998111 -0.055552 0.026253
0.171338 -0.316999 0.150224 -0.000000 0.000000 1.000000
0.398587 -0.782018 0.149128 0.016224 -0.007514 0.999840
0.025643 0.271737 0.005570 0.000000 0.554430 -0.832230
0.255371 0.118391 -0.160360 0.080612 0.085199 -0.993098
-0.296342 -0.149312 -0.144950 -0.937816 -0.318251 -0.138626
-0.144984 -0.565272 -0.162828 0.000000 0.000000 -1.000000
-0.305984 -0.247976 0.084385 -0.933543 0.357400 0.027618
0.049741 -0.124472 -0.162828 0.000000 0.000000 -1.000000
0.214261 -0.522239 -0.152723 -0.000000 0.000000 -1.000000
-0.215420 -0.980389 0.061169 -0.236775 -0.971565 0.000000
0.206065 -0.275399 -0.162828 -0.000000 0.000000 -1.000000
-0.302901 -0.056701 -0.161734 -0.020543 -0.000844 -0.999789
0.205672 -0.732618 0.150224 0.000000 0.000000 1.000000
0.056791 -0.789879 0.150224 0.000000 0.000000 1.000000
-0.135812 -0.726864 -0.162700 0.000000 0.000000 -1.000000
0.404457 -0.855828 -0.069593 0.893475 -0.448760 -0.017784
-0.020097 -0.998762 -0.130451 -0.000258 -0.999816 -0.019199
-0.289156 0.117652 -0.022201 -0.791944 0.610386 -0.015937
0.459596 -0.654475 -0.125098 0.985257 0.169900 -0.020079
-0.311499 -0.935337 -0.120911 -0.478963 -0.877665 -0.017267
-0.087355 -0.133644 0.122287 0.711873 -0.657712 0.246275
0.080402 0.720350 0.141778 0.982056 -0.041707 0.183918
-0.157310 -0.549914 -0.162828 0.000000 0.000000 -1.000000
0.231556 -0.733996 -0.162828 0.000000 0.000000 -1.000000
0.261494 -0.899744 0.149838 0.003080 -0.020412 0.999787
-0.310432 -0.585472 -0.162828 -0.000000 -0.000000 -1.000000
0.136680 -0.383304 -0.162379 0.000000 0.000000 -1.000000
-0.342147 -0.912407 -0.034829 -0.658670 -0.752432 0.000000
0.441771 -0.551985 -0.020882 0.883143 0.469104 0.000000
-0.077522 -0.999578 -0.087179 -0.000258 -0.999816 -0.019199
0.439140 -0.642503 0.146887 0.115728 0.019873 0.993082
-0.447212 -0.612234 0.145341 -0.115728 0.019873 0.993082
-0.295974 -0.776812 -0.154493 0.000000 0.000000 -1.000000
-0.164447 -0.878658 0.150224 0.000000 0.000000 1.000000
-0.080681 -0.190895 0.121856 0.000000 -0.000000 1.000000
0.149532 0.065243 0.150224 -0.000000 0.000000 1.000000
0.300710 -0.309440 -0.149260 0.924163 0.353350 -0.145143
-0.202898 -0.930611 -0.162036 -0.004233 -0.019287 -0.999805
-0.380942 -0.758579 0.149493 -0.015489 -0.001535 0.999879
-0.034957 -1.000000 -0.012601 0.000000 -1.000000 0.000000
-0.341884 -0.363667 0.042620 -0.900360 0.435145 -0.000000
-0.196221 -0.106471 -0.162828 -0.000000 -0.000000 -1.000000
0.103705 -0.836155 -0.162828 0.000000 0.000000 -1.000000
-0.104622 -0.879843 -0.162828 0.000000 0.000000 -1.000000
-0.016428 -0.661206 0.150224 0.000000 0.000000 1.000000
0.042235 0.492492 0.074452 0.397391 0.113909 -0.910552
0.048599 0.485995 0.161089 0.040638 0.000563 0.999174
0.349635 -0.904609 -0.121026 0.657881 -0.752921 -0.017408
0.052815 -1.015198 0.128417 0.000253 -0.979477 0.201554
-0.135934 -0.654408 -0.162828 0.000000 0.000000 -1.000000
-0.210727 -0.898304 0.145044 -0.003080 -0.020412 0.999787
0.285739 0.120416 0.129174 0.789609 0.579589 0.201477
-0.327494 -0.601129 -0.162828 -0.000000 -0.000000 -1.000000
-0.073332 -0.998816 0.123230 -0.000258 -0.999598 0.028338
0.061800 0.237896 0.079003 0.952451 0.291353 -0.089165
-0.238130 -0.820578 -0.162828 0.000000 0.000000 -1.000000
0.025841 0.445028 0.061753 -0.000000 0.132446 -0.991190
-0.180593 -0.064563 -0.162828 -0.000000 0.000000 -1.000000
-0.256366 -0.877446 0.150241 0.000000 0.000000 1.000000
-0.062384 -0.088650 0.162828 0.000000 0.000000 1.000000
-0.138422 -0.992950 -0.138682 -0.080289 -0.985961 -0.146406
-0.079126 -0.466282 -0.162828 -0.000000 -0.000000 -1.000000
-0.365845 -0.414795 -0.052224 -0.900360 0.435145 -0.000000
-0.054645 0.270099 0.035861 -0.985743 0.085137 -0.145131
0.444082 -0.560059 0.096494 0.985023 0.169860 0.029636
0.271289 -0.349862 0.149724 0.021360 0.007752 0.999742
-0.388118 -0.482344 0.020166 -0.883143 0.469104 -0.000000
0.164009 -0.992918 -0.028238 0.236775 -0.971565 0.000000
0.021647 0.612437 0.161753 0.000096 0.000001 1.000000
-0.211517 -0.980170 0.124460 -0.236743 -0.971212 0.026447
0.279127 0.088876 -0.101892 0.791919 0.610367 -0.017763
-0.398975 -0.475057 -0.127355 -0.883131 0.468798 -0.017539
0.306825 -0.938654 0.092765 0.478879 -0.877511 0.025507
-0.200129 0.128001 0.149346 -0.002396 0.018323 0.999829
-0.061315 0.167277 -0.161747 -0.041450 0.137015 -0.989701
-0.017612 -0.041016 0.162828 0.000000 0.000000 1.000000
-0.206557 0.099260 -0.162287 -0.023513 0.029857 -0.999278
0.159008 -0.990100 0.137839 0.079390 -0.976348 0.201104
0.292862 0.086649 0.147237 0.142304 0.105000 0.984238
0.094397 -0.835518 0.150224 0.000000 0.000000 1.000000
-0.340168 -0.050392 -0.036634 -0.998455 -0.055572 -0.000000
-0.342131 -0.912421 0.047928 -0.658670 -0.752432 0.000000
-0.223915 0.057462 0.150272 0.000000 -0.000000 1.000000
-0.280476 -0.135256 0.149374 -0.020543 -0.006516 0.999768
0.302316 -0.105371 0.149099 0.020543 -0.000094 0.999789
-0.261050 -0.393100 -0.162828 -0.000000 -0.000000 -1.000000
0.080788 -0.636536 -0.162828 0.000000 0.000000 -1.000000
-0.396828 -0.864539 0.055042 -0.658670 -0.752432 0.000000
0.170166 -0.991457 -0.057342 0.236775 -0.971565 0.000000
-0.051893 0.570523 0.096687 -0.944260 0.023080 -0.328389
-0.120056 -0.195912 -0.162828 0.000000 0.000000 -1.000000
-0.293252 -0.378075 -0.162096 -0.018277 0.008294 -0.999799
0.202839 -0.985259 0.078503 0.236775 -0.971565 0.000000
0.046012 0.205283 -0.120700 0.832494 0.519557 -0.192393
0.061186 0.207175 0.161828 0.042195 -0.000371 0.999109
-0.222821 -0.279121 0.150224 0.000000 -0.000000 1.000000
0.242708 -0.455592 -0.192676 -0.000000 0.000000 -1.000000
0.229764 -0.975747 -0.127359 0.236788 -0.971396 -0.017917
0.052073 0.704377 0.149924 0.293928 0.033439 0.955242
0.306404 0.084379 -0.157992 0.129873 0.104941 -0.985962
-0.261600 0.148821 0.125660 -0.366822 0.929969 0.024499
0.159654 -0.764114 -0.162828 0.000000 -0.000000 -1.000000
0.097033 -0.912285 -0.162526 0.001268 -0.017389 -0.999848
0.373077 -0.425846 0.126012 0.900002 0.435072 0.026626
-0.072412 -0.504558 -0.162828 -0.000000 -0.000000 -1.000000
0.417673 -0.829686 -0.007390 0.893642 -0.448781 -0.000000
-0.455596 -0.624107 0.013112 -0.985417 0.170159 -0.000000
-0.057834 0.381254 0.088472 -0.962427 0.047457 -0.267363
0.105266 0.191471 0.094742 0.250581 0.968008 0.013020
-0.348764 -0.691199 0.150094 -0.015489 -0.001535 0.999879
0.059414 0.236683 0.104142 0.984865 0.171081 -0.027783
-0.006767 0.284276 0.162827 -0.000087 0.000000 1.000000
-0.150494 -0.795342 -0.162828 0.000000 -0.000000 -1.000000
0.320717 0.064036 0.134987 0.960869 0.206372 0.184773
0.008974 -0.392454 -0.162824 0.000000 0.000000 -1.000000
0.255626 -0.815206 -0.162828 0.000000 0.000000 -1.000000
0.275736 -0.733901 0.127195 0.000000 -0.000000 1.000000
0.073316 -0.724029 0.159945 -0.000758 0.583037 0.812445
0.260648 -0.481795 -0.162828 -0.000000 0.000000 -1.000000
-0.190496 0.169754 -0.141829 -0.313904 0.934650 -0.167013
0.311645 -0.187453 -0.059909 0.970224 -0.242209 0.000000
0.440867 -0.568679 -0.155880 0.973599 0.167191 -0.155411
-0.332435 -0.155205 -0.033326 -0.946457 -0.322830 -0.000000
-0.458531 -0.700758 0.030087 -0.989633 -0.143620 -0.000000
0.430238 -0.767868 -0.157935 0.127519 -0.064078 -0.989764
0.381444 -0.439701 0.072951 0.883143 0.469104 0.000000
-0.019052 -0.816655 0.150224 0.000000 -0.000000 1.000000
-0.166236 -0.352613 0.150224 0.000000 0.000000 1.000000
0.353404 -0.571133 0.149631 0.015424 0.001893 0.999879
0.303804 -0.242497 0.052734 0.998907 -0.046740 0.000000
-0.234325 -0.819316 0.150224 0.000000 0.000000 1.000000
-0.316458 -0.168712 -0.048376 -0.946457 -0.322830 0.000000
-0.191473 0.027943 -0.162828 0.000000 -0.000000 -1.000000
0.046968 -0.459252 0.150224 -0.000000 0.000000 1.000000
0.335848 -0.063532 -0.148770 0.987048 -0.059416 -0.149019
0.406332 -0.685554 0.149244 0.014922 -0.001957 0.999887
-0.231553 0.134038 -0.143655 -0.050504 0.112482 -0.992369
0.333823 -0.094544 -0.149818 0.987048 -0.059416 -0.149019
-0.258525 0.048424 -0.162770 -0.016597 0.005671 -0.999846
-0.092784 0.082882 0.150224 -0.000000 0.000000 1.000000
-0.338225 -0.004449 0.071618 -0.977600 0.210474 0.000000
-0.010954 -1.000000 -0.031689 -0.000000 -1.000000 0.000000
-0.422731 -0.611240 -0.121138 -0.985257 0.169900 -0.020079
-0.036894 -0.470857 0.150224 -0.000000 0.000000 1.000000
0.003255 0.202002 0.162828 0.000079 0.000000 1.000000
-0.155633 -0.259986 0.150224 0.000000 0.000000 1.000000
-0.115094 -0.997225 -0.051194 -0.081207 -0.996697 -0.000000
0.023695 0.995815 0.131775 0.544021 0.838823 0.020414
-0.260965 -0.911340 -0.158793 -0.003080 -0.020412 -0.999787
0.309975 -0.299247 0.145306 0.159905 0.060898 0.985252
0.437323 -0.704294 0.147062 0.117975 -0.016938 0.992872
0.233854 -0.580869 0.150224 -0.000000 0.000000 1.000000
0.221039 -0.899232 -0.162006 0.004233 -0.019287 -0.999805
0.381790 -0.442593 0.121875 0.882971 0.468713 0.025888
0.143197 -0.133189 0.150224 0.000000 -0.000000 1.000000
0.182539 -0.843261 0.150224 0.000000 0.000000 1.000000
-0.193687 -0.983438 -0.141194 -0.234540 -0.962175 -0.138600
0.125355 -0.816421 -0.162828 0.000000 -0.000000 -1.000000
0.017468 0.377128 0.052897 0.000000 0.340050 -0.940407
0.341621 -0.911208 -0.133073 0.652946 -0.747273 -0.123474
0.080028 -0.785408 0.153861 0.000000 0.000000 1.000000
0.102798 -0.665622 0.150224 -0.000000 0.000000 1.000000
0.049840 0.842134 0.135672 0.028535 0.001107 0.999592
0.307639 -0.197663 -0.133460 0.960357 -0.239923 -0.141958
0.079495 0.921784 0.077100 0.975864 0.020025 -0.217457
0.075360 -0.540548 0.150224 -0.000000 0.000000 1.000000
0.379616 -0.686434 0.149505 0.014922 -0.001957 0.999887
0.172568 0.181140 -0.008205 0.139277 0.990194 -0.010839
-0.459735 -0.648124 0.041854 -0.985417 0.170159 -0.000000
-0.199448 -0.147602 -0.162828 0.000000 0.000000 -1.000000
0.018464 -0.516530 0.152618 -0.000000 0.000000 1.000000
0.341086 -0.033902 -0.010631 0.998455 -0.055572 0.000000
-0.276321 -0.960170 0.054602 -0.478790 -0.877930 -0.000000
-0.037952 -0.522017 -0.162828 -0.000000 -0.000000 -1.000000
0.017837 -0.486190 -0.162833 -0.000000 0.000000 -1.000000
-0.344857 -0.553008 -0.162514 -0.015332 0.007577 -0.999854
0.304665 -0.205190 0.104608 0.969823 -0.242288 0.027196
0.109228 -0.371873 0.150224 0.000000 -0.000000 1.000000
0.212800 0.175655 -0.118168 0.323031 0.945208 -0.047262
-0.335544 0.008005 0.043101 -0.977600 0.210474 0.000000
-0.338305 -0.084274 0.033432 -0.998455 -0.055572 0.000000
0.034541 0.296031 0.025900 0.489008 0.384398 -0.783013
-0.439529 -0.500280 -0.053839 -0.883143 0.469104 0.000000
-0.419531 -0.739802 -0.161264 -0.122616 -0.016080 -0.992324
0.235011 -0.180064 -0.162621 0.022766 -0.004282 -0.999732
0.303348 0.068286 -0.159776 0.130532 0.032031 -0.990927
0.213462 -0.670391 -0.162828 0.000000 0.000000 -1.000000
0.341784 -0.484755 -0.162044 0.015332 0.007577 -0.999854
0.309976 -0.209979 0.053012 0.970224 -0.242209 0.000000
0.187559 -0.575724 0.150224 0.000000 -0.000000 1.000000
-0.097446 -0.208935 0.121856 0.000000 -0.000000 1.000000
-0.188391 -0.476506 0.150224 -0.000000 -0.000000 1.000000
-0.016538 -1.028335 -0.025218 -0.000000 -1.000000 0.000000
0.042228 -0.872157 0.150224 0.000000 0.000000 1.000000
0.157189 -0.768801 0.150224 0.000000 -0.000000 1.000000
0.008981 0.707978 0.085027 0.000027 0.231424 -0.972853
-0.244467 -0.965551 -0.102526 -0.478721 -0.877804 -0.016906
0.030985 0.291724 0.162825 0.000086 0.000000 1.000000
0.362714 -0.786538 0.149675 0.016224 -0.007514 0.999840
-0.205138 -0.580108 0.150224 0.000000 0.000000 1.000000
-0.145418 -0.424313 0.150224 0.000000 0.000000 1.000000
-0.340465 -0.356822 -0.093319 -0.900175 0.435155 -0.018039
0.030301 0.345519 0.080285 0.961028 0.071764 -0.266974
-0.120400 -0.643236 0.150224 0.000000 0.000000 1.000000
-0.372790 -0.422546 -0.015918 -0.900360 0.435145 -0.000000
0.397967 -0.657898 0.149361 0.014659 0.002325 0.999890
0.396139 -0.467365 0.032657 0.883143 0.469104 0.000000
-0.006761 -0.497164 -0.162828 -0.000000 -0.000000 -1.000000
0.196629 -0.303669 0.150224 -0.000000 0.000000 1.000000
0.289697 -0.948321 0.060776 0.478781 -0.877934 -0.000013
-0.226842 0.139728 -0.159958 -0.050504 0.112482 -0.992369
-0.021964 0.541755 0.161753 -0.000096 0.000000 1.000000
-0.061501 0.370335 0.116582 -0.999142 0.022352 -0.034861
0.417272 -0.577055 -0.160838 0.121263 0.019231 -0.992434
0.226129 -0.176716 0.150224 0.000000 0.000000 1.000000
-0.061424 0.328820 0.159408 -0.994520 0.020807 0.102451
-0.130231 0.187265 0.007379 -0.139277 0.990194 -0.010841
-0.007458 -0.385082 0.150224 0.000000 -0.000000 1.000000
-0.305746 0.095599 -0.034364 -0.800612 0.599184 0.000000
-0.060090 0.414439 0.106026 -0.999107 0.023859 -0.034859
0.336520 -0.925213 -0.114804 0.657881 -0.752921 -0.017408
-0.025184 0.994666 0.100122 -0.542286 0.839647 -0.030309
0.051386 -0.960235 -0.161705 0.000025 -0.017181 -0.999852
0.193375 -0.218315 -0.162828 0.000000 0.000000 -1.000000
0.263129 -0.622290 0.149942 -0.000000 0.000000 1.000000
-0.288971 0.118686 0.065672 -0.805043 0.593216 0.000000
-0.119583 -0.961528 -0.161641 -0.001268 -0.017389 -0.999848
-0.059738 0.420296 0.100746 -0.958415 0.038926 -0.282713
-0.218905 0.075479 0.158421 -0.000000 0.000000 1.000000
-0.265305 -0.961622 -0.044314 -0.478790 -0.877930 -0.000000
0.197888 -0.248143 0.150224 0.000000 0.000000 1.000000
-0.149092 -0.690195 -0.162828 -0.000000 0.000000 -1.000000
0.192478 -0.571408 -0.162828 0.000000 -0.000000 -1.000000
0.041505 0.420459 0.161422 0.039627 0.000528 0.999214
-0.264733 -0.449374 0.146626 -0.000000 0.000000 1.000000
0.071840 0.709121 0.101155 0.492197 -0.680057 -0.543383
-0.370070 -0.417811 -0.085791 -0.900216 0.435076 -0.017878
-0.147661 -0.652818 -0.162828 0.000000 0.000000 -1.000000
-0.319290 0.075228 0.156451 -0.789976 0.582890 0.190205
-0.057924 -0.220684 -0.162828 0.000000 -0.000000 -1.000000
0.174600 0.172557 -0.152752 0.313901 0.934651 -0.167013
0.075019 -0.771367 -0.162828 0.000000 0.000000 -1.000000
0.005197 -0.792392 -0.162828 0.000000 0.000000 -1.000000
-0.410054 -0.844861 -0.017431 -0.893646 -0.448773 -0.000000
-0.027749 0.710513 0.151699 -0.027593 -0.011073 0.999558
-0.015044 -0.573918 0.150224 0.000000 0.000000 1.000000
0.059705 -0.255799 -0.162828 0.000000 0.000000 -1.000000
-0.032927 0.875952 0.085761 0.010819 -0.000142 -0.999942
0.051052 0.037349 0.162825 0.000205 0.000124 1.000000
-0.447056 -0.769002 -0.120334 -0.893506 -0.448702 -0.017698
0.065960 -0.160665 -0.162828 -0.000000 0.000000 -1.000000
-0.336906 -0.107107 0.085166 -0.997991 -0.056651 0.028381
-0.366449 -0.409425 0.033891 -0.900360 0.435145 -0.000000
0.334073 -0.342435 0.068931 0.900360 0.435145 -0.000000
-0.445421 -0.817908 0.084744 -0.893646 -0.448773 -0.000000
-0.399606 -0.538947 0.148842 -0.140490 0.069434 0.987644
-0.241000 -0.431863 0.150224 0.000000 0.000000 1.000000
0.374167 -0.521104 0.149219 0.015332 0.007577 0.999854
-0.204282 -0.983337 -0.039655 -0.236775 -0.971565 0.000000
0.110764 0.188654 -0.066829 0.131419 0.990925 -0.028239
0.017784 0.713627 0.078622 0.000000 0.231440 -0.972849
-0.037252 0.245195 -0.082727 -0.224348 0.959755 -0.168932
-0.254747 0.130936 0.096089 -0.366822 0.929969 0.024499
0.449409 -0.591582 -0.092768 0.985257 0.169900 -0.020079
-0.187004 0.169804 -0.148111 -0.313904 0.934650 -0.167013
0.359005 -0.394022 0.022959 0.900360 0.435145 0.000000
-0.376706 -0.733819 0.149638 -0.014922 -0.001957 0.999887
-0.448083 -0.593000 -0.136906 -0.973023 0.167790 -0.158341
0.221235 0.092523 0.149806 0.026891 0.028882 0.999221
0.274800 0.127530 -0.147872 0.766859 0.619643 -0.167244
-0.109271 -0.454691 -0.135755 0.000000 0.000000 -1.000000
0.077460 -0.614503 0.150224 -0.000000 0.000000 1.000000
-0.162654 -0.229486 0.150224 0.000000 0.000000 1.000000
0.168916 0.179007 -0.126315 0.323031 0.945208 -0.047262
-0.070879 -0.263656 0.121856 0.000000 -0.000000 1.000000
-0.053275 0.422140 0.160954 -0.039627 0.000528 0.999214
-0.326590 -0.763527 -0.162828 -0.000000 0.000000 -1.000000
0.254995 -0.292100 0.149635 0.022992 0.006556 0.999714
-0.459938 -0.650299 0.001735 -0.985417 0.170159 -0.000000
0.321618 -0.150470 -0.121045 0.946428 -0.322421 -0.017864
-0.196114 -0.985095 -0.012898 -0.236775 -0.971565 -0.000000
-0.295694 0.067922 -0.160796 -0.130532 0.032031 -0.990927
0.064853 0.219449 0.014539 0.917725 0.387814 -0.085914
0.458817 -0.697852 0.085933 0.989195 -0.143556 0.029733
-0.239828 -0.713299 0.150224 0.000000 0.000000 1.000000
-0.282379 -0.839872 -0.162828 0.000000 -0.000000 -1.000000
-0.134469 -0.233249 -0.163047 0.000000 0.000000 -1.000000
0.188693 -0.135739 0.150224 0.000000 -0.000000 1.000000
-0.044565 0.201984 -0.134336 -0.882294 0.427913 -0.196079
0.368727 -0.465091 0.148042 0.140490 0.069434 0.987644
0.214325 0.170605 0.051506 0.354162 0.935015 -0.017769
0.168760 0.181473 -0.026719 0.139277 0.990194 -0.010839
-0.077027 -0.148335 -0.168310 -0.000000 -0.000000 -1.000000
0.065478 -0.120049 0.121856 -0.000000 0.000000 1.000000
-0.363336 -0.505140 -0.161318 -0.015332 0.007577 -0.999854
0.269432 0.144532 0.039588 0.800570 0.599153 -0.010141
-0.291958 0.005815 -0.161828 -0.018853 0.004626 -0.999812
0.038617 0.951298 0.085669 -0.030644 -0.001282 -0.999530
0.240656 -0.575750 0.150224 -0.000000 0.000000 1.000000
-0.029598 0.785272 0.085814 0.011102 -0.000172 -0.999938
-0.047956 0.684684 0.079486 0.000000 0.231440 -0.972849
0.342248 -0.746585 0.150110 0.015489 -0.001535 0.999879
-0.000814 0.116246 -0.162977 -0.000000 -0.000000 -1.000000
0.061567 -0.807310 -0.162828 0.000000 0.000000 -1.000000
-0.037586 0.782481 0.139187 -0.007576 0.778959 0.627030
-0.258512 -0.292073 -0.162158 -0.022991 0.006556 -0.999714
-0.158986 0.136780 -0.161874 -0.003892 0.017082 -0.999846
0.184632 -0.987893 0.008331 0.236775 -0.971565 0.000000
-0.479245 -0.655650 0.056417 -0.985417 0.170159 -0.000000
-0.462561 -0.670221 0.094779 -0.989195 -0.143556 0.029733
-0.232208 -0.839372 -0.162800 0.000000 0.000000 -1.000000
0.440965 -0.726209 -0.158859 0.117976 -0.016938 -0.992872
-0.102407 -0.626793 0.150224 0.000000 0.000000 1.000000
0.090415 -0.785561 -0.162828 0.000000 0.000000 -1.000000
0.333971 -0.919457 0.079959 0.658499 -0.752216 0.023455
-0.079664 -0.122053 0.129194 0.711873 -0.657712 0.246275
0.240578 -0.272474 0.149837 0.022992 0.006556 0.999714
0.337379 -0.468924 0.149397 0.018277 0.007157 0.999807
0.326716 -0.328210 -0.089260 0.900175 0.435155 -0.018039
0.070021 0.219432 0.148381 0.374854 -0.001401 0.927083
0.165086 -0.741133 -0.163436 0.000000 -0.000000 -1.000000
-0.327220 0.046666 -0.007332 -0.977599 0.210474 0.000000
0.245706 -0.682012 -0.196146 0.000000 0.000000 -1.000000
0.117102 -0.380119 -0.162828 0.000000 -0.000000 -1.000000
-0.082397 0.822919 0.141828 -0.970755 -0.004734 0.240024
0.376469 -0.434581 -0.138109 0.875404 0.463811 -0.136189
-0.336286 -0.093328 0.006754 -0.946457 -0.322830 -0.000000
0.091489 -0.557250 0.150224 -0.000000 0.000000 1.000000
0.160614 -0.085101 -0.162809 -0.000000 -0.000000 -1.000000
-0.336329 -0.347103 0.074796 -0.900360 0.435145 0.000000
-0.207455 -0.041345 0.150224 0.000000 0.000000 1.000000
0.429358 -0.529904 0.010353 0.883143 0.469104 0.000000
-0.222907 0.146064 0.144141 -0.360799 0.912775 0.191482
-0.048655 -0.312139 0.146807 0.309131 0.951020 -0.000000
0.163091 -0.969034 0.059037 0.236775 -0.971565 0.000000
0.080210 -0.291709 0.144683 -0.758991 0.651102 -0.000000
0.108542 -0.258459 0.121856 0.000000 0.000000 1.000000
-0.252050 0.153628 0.069710 -0.363367 0.931635 -0.004549
0.165063 0.182708 0.041031 0.143767 0.989586 -0.007056
-0.302578 -0.941295 -0.020150 -0.478790 -0.877930 -0.000000
-0.300817 -0.531391 0.150224 -0.000000 -0.000000 1.000000
0.220296 -0.196504 0.150224 0.000000 0.000000 1.000000
-0.195682 -0.109947 -0.162716 -0.000000 0.000000 -1.000000
-0.061342 0.204635 -0.044475 -0.924233 0.350850 -0.150654
-0.190341 -0.623526 -0.160023 0.000000 0.000000 -1.000000
-0.055900 -0.704459 -0.162828 -0.000000 0.000000 -1.000000
0.004587 -0.093419 -0.162828 -0.000000 0.000000 -1.000000
0.080639 -0.181562 0.121856 -0.000000 0.000000 1.000000
0.066736 -0.069691 0.156100 0.999666 0.000000 -0.025856
-0.459430 -0.694563 0.075938 -0.989633 -0.143620 0.000000
0.295508 -0.947828 -0.073438 0.478712 -0.877809 -0.016906
0.226192 -0.631054 -0.162828 0.000000 0.000000 -1.000000
0.450683 -0.754893 0.018534 0.989633 -0.143620 0.000000
-0.033815 -1.000000 0.008832 0.000000 -1.000000 0.000000
0.002235 -0.758768 0.155124 0.001658 -0.563713 0.825969
-0.133176 0.071332 -0.162828 -0.000000 0.000000 -1.000000
-0.056181 -0.184742 -0.191482 -0.000000 -0.000000 -1.000000
0.418635 -0.509716 0.010409 0.883143 0.469104 0.000000
0.069762 -0.552935 0.181294 -0.000000 0.000000 1.000000
0.362834 -0.402162 0.084982 0.900047 0.434994 0.026389
0.361030 -0.529041 0.149493 0.015332 0.007577 0.999854
0.307272 -0.201632 0.111200 0.969823 -0.242288 0.027196
-0.052481 0.293696 0.035716 -0.488993 0.384393 -0.783024
-0.248297 -0.969747 -0.124917 -0.478721 -0.877804 -0.016906
0.429585 -0.530333 0.014193 0.883143 0.469104 0.000000
0.328998 -0.119349 -0.152137 0.937058 -0.319229 -0.141472
0.235219 -0.852600 -0.162828 0.000000 0.000000 -1.000000
0.429135 -0.806863 -0.021697 0.893642 -0.448781 0.000000
0.194818 -0.189630 -0.162828 0.000000 0.000000 -1.000000
0.213529 -0.053686 0.150224 -0.000000 0.000000 1.000000
-0.214055 -0.020986 0.150224 0.000000 0.000000 1.000000
-0.291838 0.114184 0.000944 -0.800612 0.599184 0.000000
-0.266750 -0.470719 0.150224 -0.000000 -0.000000 1.000000
-0.296553 -0.405499 0.149659 -0.018277 0.008294 0.999799
